-1.12283 0.302398 -0.43218099999999998
-1.1462540000000001 0.32241500000000001 -0.449015
-1.1508370000000001 0.33648600000000001 -0.44173899999999999
-1.1354230000000001 0.32954499999999998 -0.444019
-1.118744 0.34838400000000003 -0.417236
-1.0877540000000001 0.36836099999999999 -0.470447
-1.1068249999999999 0.32790799999999998 -0.43229200000000001
-1.0912200000000001 0.333901 -0.42082199999999997
-1.0985659999999999 0.27987000000000001 -0.41127999999999998
-1.0362960000000001 0.31888100000000003 -0.45839200000000002
-1.083661 0.31149900000000003 -0.41788199999999998
-1.0759989999999999 0.33191999999999999 -0.41260799999999997
-1.0576030000000001 0.30922300000000003 -0.40425299999999997
-1.0592550000000001 0.33242100000000002 -0.399752
-1.0997969999999999 0.37815100000000001 -0.375662
-1.0542670000000001 0.34290599999999999 -0.38215900000000003
-1.0113259999999999 0.37970999999999999 -0.42821500000000001
-1.0598030000000001 0.41555999999999998 -0.43714700000000001
-1.082044 0.458756 -0.40384700000000001
-1.0571330000000001 0.46006799999999998 -0.36427799999999999
-1.0351840000000001 0.440077 -0.39716299999999999
-1.0351049999999999 0.45285700000000001 -0.36692599999999997
-1.0846560000000001 0.41015200000000002 -0.34494900000000001
-1.091567 0.44310899999999998 -0.342111
-1.0760350000000001 0.45794200000000002 -0.34478599999999998
-1.068157 0.424344 -0.32948
-1.053375 0.448432 -0.32669900000000002
-1.001009 0.17049500000000001 -0.367122
-0.98384000000000005 0.21568899999999999 -0.44304399999999999
-1.016931 0.19903299999999999 -0.372195
-1.0376000000000001 0.23045299999999999 -0.46729100000000001
-1.061229 0.221696 -0.38556800000000002
-1.0279130000000001 0.230874 -0.37570500000000001
-0.97424999999999995 0.16875299999999999 -0.35671199999999997
-0.95825300000000002 0.20894299999999999 -0.43056100000000003
-0.99122500000000002 0.21171000000000001 -0.36285699999999999
-0.96972000000000003 0.20388000000000001 -0.35456500000000002
-0.98651699999999998 0.245092 -0.36084699999999997
-0.95620700000000003 0.23119100000000001 -0.34740900000000002
-0.93772999999999995 0.24865799999999999 -0.33441300000000002
-1.055593 0.27716099999999999 -0.39250600000000002
-1.01048 0.26925500000000002 -0.452569
-1.0246010000000001 0.27986699999999998 -0.38060500000000003
-0.98707400000000001 0.34268900000000002 -0.42748999999999998
-1.0390159999999999 0.31459399999999998 -0.393986
-1.015523 0.306029 -0.37863599999999997
-1.0289839999999999 0.32875900000000002 -0.37667899999999999
-0.93953900000000001 0.29177599999999998 -0.41257899999999997
-0.98492599999999997 0.27544999999999997 -0.359765
-0.995166 0.31241099999999999 -0.35721799999999998
-0.95009100000000002 0.28102300000000002 -0.33028200000000002
-0.96675699999999998 0.31576500000000002 -0.31516
-0.888324 0.33590300000000001 -0.37041000000000002
-0.93541399999999997 0.30563200000000001 -0.28174100000000002
-0.88582399999999994 0.37784800000000002 -0.32449
-0.91348499999999999 0.40062199999999998 -0.27416800000000002
-0.92771199999999998 0.34891299999999997 -0.24664
-0.96092999999999995 0.37051499999999998 -0.26637100000000002
-0.93983300000000003 0.39006600000000002 -0.25174600000000003
-1.018497 0.363593 -0.32631700000000002
-0.96777800000000003 0.38994299999999998 -0.39353300000000002
-1.01427 0.44178600000000001 -0.31061
-1.014148 0.44756600000000002 -0.329351
-0.99317900000000003 0.43994100000000003 -0.34500900000000001
-1.0001660000000001 0.38906200000000002 -0.29247400000000001
-0.99790299999999998 0.411879 -0.28590300000000002
-1.031218 0.41560000000000002 -0.30727599999999999
-1.0141450000000001 0.424958 -0.29709099999999999
-0.99587800000000004 0.43519400000000003 -0.29999900000000002
-0.93854800000000005 0.41694799999999999 -0.31569199999999997
-0.98495100000000002 0.39084400000000002 -0.27944799999999997
-0.96231599999999995 0.42063800000000001 -0.28046199999999999
-1.00814 -0.048013 -0.40559299999999998
-1.0401020000000001 -0.015951 -0.434226
-1.0379370000000001 -0.069984000000000005 -0.37568099999999999
-1.060732 -0.046101000000000003 -0.32809700000000003
-1.0545979999999999 -0.018079000000000001 -0.32260800000000001
-1.0375430000000001 0.0056420000000000003 -0.35264800000000002
-0.97869200000000001 -0.0055909999999999996 -0.41662900000000003
-1.020653 0.018086000000000001 -0.37601800000000002
-1.019962 0.0028379999999999998 -0.35127399999999998
-1.00021 -0.0027430000000000002 -0.33554099999999998
-0.96680200000000005 0.025651 -0.344057
-1.035156 -0.070313000000000001 -0.33485199999999998
-1.006192 -0.080780000000000005 -0.35858699999999999
-1.0040789999999999 -0.077599000000000001 -0.30627300000000002
-0.94481199999999999 -0.080201999999999996 -0.35614400000000002
-0.97410600000000003 -0.092536999999999994 -0.32464100000000001
-0.97489499999999996 -0.076637999999999998 -0.272924
-0.94291599999999998 -0.100061 -0.30578300000000003
-1.0305789999999999 -0.040343999999999998 -0.30348000000000003
-1.0111410000000001 -0.015438 -0.30864999999999998
-1.004375 -0.049681000000000003 -0.28542499999999998
-0.97535499999999997 -0.015039 -0.29727199999999998
-0.88643300000000003 -0.073743000000000003 -0.341165
-0.91217899999999996 -0.105998 -0.28733199999999998
-0.91577299999999995 -0.095133999999999996 -0.24010200000000001
-0.93245400000000001 -0.055365999999999999 -0.23470099999999999
-0.923759 -0.018686999999999999 -0.269625
-0.91975899999999999 -0.018256000000000001 -0.38631199999999999
-0.94866899999999998 0.0010870000000000001 -0.32094400000000001
-0.92510099999999995 0.02248 -0.31979999999999997
-0.86448800000000003 -0.025101999999999999 -0.360267
-0.86001399999999995 0.014315 -0.31245699999999998
-0.87514700000000001 0.0043369999999999997 -0.30172100000000002
-0.87390900000000005 0.036201999999999998 -0.319911
-0.85311800000000004 -0.11025699999999999 -0.272061
-0.82811800000000002 -0.093229000000000006 -0.29793900000000001
-0.85943099999999994 -0.102787 -0.20577500000000001
-0.89105000000000001 -0.054760999999999997 -0.20834900000000001
-0.88012000000000001 -0.030467000000000001 -0.225908
-0.85805200000000004 -0.070109000000000005 -0.186392
-0.83874300000000002 -0.028589 -0.21870899999999999
-0.74771699999999996 -0.11106199999999999 -0.22200600000000001
-0.81724699999999995 -0.092909000000000005 -0.17263500000000001
-0.80696999999999997 -0.10553999999999999 -0.18095600000000001
-0.80620499999999995 -0.060636000000000002 -0.170241
-0.76612000000000002 -0.098193000000000003 -0.163239
-0.771366 -0.07331 -0.15925
-0.78056300000000001 -0.073400000000000007 -0.30522100000000002
-0.79096599999999995 -0.015838999999999999 -0.22558600000000001
-0.76450200000000001 -0.0012819999999999999 -0.21240500000000001
-0.79299799999999998 -0.033656999999999999 -0.194189
-0.83438900000000005 -0.054801000000000002 -0.33465699999999998
-0.85245199999999999 -0.0065859999999999998 -0.29340899999999998
-0.84035199999999999 -0.0084340000000000005 -0.29339500000000002
-0.83420300000000003 -0.0064029999999999998 -0.29589100000000002
-0.83126699999999998 -0.0073280000000000003 -0.29221000000000003
-0.83973799999999998 -0.012737999999999999 -0.28193299999999999
-0.82834099999999999 -0.0080850000000000002 -0.28745500000000002
-0.82494299999999998 -0.0056160000000000003 -0.28414099999999998
-0.82172500000000004 -0.0090659999999999994 -0.27482200000000001
-0.82175699999999996 -0.0022339999999999999 -0.27923199999999998
-0.82694100000000004 -0.014238000000000001 -0.26749200000000001
-0.85860400000000003 -0.017977 -0.26042700000000002
-0.81401900000000005 -0.025825000000000001 -0.34396700000000002
-0.85426999999999997 0.0041869999999999997 -0.30648399999999998
-0.84765199999999996 0.010181000000000001 -0.30969000000000002
-0.84302100000000002 0.0086960000000000006 -0.30712800000000001
-0.84155899999999995 -0.0018879999999999999 -0.30270399999999997
-0.83896400000000004 0.00038200000000000002 -0.30358000000000002
-0.84908700000000004 -0.0036589999999999999 -0.29902400000000001
-0.83373299999999995 0.0024849999999999998 -0.29830899999999999
-0.83072699999999999 0.011181999999999999 -0.28883900000000001
-0.840503 0.036034999999999998 -0.30105199999999999
-0.818137 -0.015925999999999999 -0.25112600000000002
-0.81187600000000004 0.0024139999999999999 -0.26473000000000002
-0.81632800000000005 0.018325000000000001 -0.26789200000000002
-0.816527 0.051298000000000003 -0.27458700000000003
-0.79054199999999997 0.029197000000000001 -0.24440100000000001
-0.952349 0.066100999999999993 -0.42074899999999998
-0.99111000000000005 0.067224999999999993 -0.36484299999999997
-0.96304699999999999 0.075689000000000006 -0.34900300000000001
-0.89834700000000001 0.055621999999999998 -0.39438800000000002
-0.94171199999999999 0.063389000000000001 -0.33767000000000003
-0.93063700000000005 0.15443899999999999 -0.41738199999999998
-0.96724600000000005 0.124641 -0.35374299999999997
-0.94154400000000005 0.10256800000000001 -0.343032
-0.90562100000000001 0.076488 -0.33124399999999998
-0.854437 0.094010999999999997 -0.38275599999999999
-0.87227900000000003 0.07399 -0.32492100000000002
-0.882602 0.14419799999999999 -0.39585799999999999
-0.92090799999999995 0.129583 -0.33814899999999998
-0.883961 0.12198299999999999 -0.32912400000000003
-0.86035499999999998 0.14010700000000001 -0.38800400000000002
-0.87991799999999998 0.142015 -0.32765100000000003
-0.84846500000000002 0.078368999999999994 -0.31985999999999998
-0.82182599999999995 0.080964999999999995 -0.30998799999999999
-0.82178799999999996 0.112169 -0.31805
-0.81170399999999998 0.1303 -0.30914000000000003
-0.84410499999999999 0.131689 -0.32116099999999997
-0.83012900000000001 0.143682 -0.31348900000000002
-0.81906599999999996 0.15083099999999999 -0.29528900000000002
-0.80218599999999995 0.076573000000000002 -0.28271400000000002
-0.78484299999999996 0.121016 -0.261351
-0.93217499999999998 0.16570699999999999 -0.34150999999999998
-0.910057 0.19673099999999999 -0.40748400000000001
-0.93388700000000002 0.20921300000000001 -0.33933000000000002
-0.86635300000000004 0.18623799999999999 -0.390405
-0.88356299999999999 0.16969500000000001 -0.32550499999999999
-0.89252299999999996 0.191083 -0.32455299999999998
-0.89256500000000005 0.236572 -0.39716499999999999
-0.92831200000000003 0.22895199999999999 -0.33352799999999999
-0.90833799999999998 0.219467 -0.32472400000000001
-0.84139699999999995 0.179565 -0.28895900000000002
-0.86712999999999996 0.23338600000000001 -0.26178099999999999
-0.89736700000000003 0.27827800000000003 -0.39349099999999998
-0.91406100000000001 0.24307400000000001 -0.31841700000000001
-0.91005000000000003 0.26504 -0.289134
-0.85417600000000005 0.34708099999999997 -0.33357399999999998
-0.85280500000000004 0.35778700000000002 -0.29827700000000001
-0.89249699999999998 0.29060599999999998 -0.24645400000000001
-0.68999600000000005 0.00026800000000000001 -0.36844199999999999
-0.68392799999999998 -0.084352999999999997 -0.27228400000000003
-0.79261999999999999 0.090273000000000006 -0.37614199999999998
-0.70543500000000003 0.100702 -0.41557699999999997
-0.79580300000000004 0.10333299999999999 -0.30724299999999999
-0.79749000000000003 0.117502 -0.30429600000000001
-0.78631600000000001 0.093804999999999999 -0.29008800000000001
-0.78587700000000005 0.10967200000000001 -0.28945500000000002
-0.77777799999999997 0.098089999999999997 -0.26996500000000001
-0.78156199999999998 0.107129 -0.27660200000000001
-0.82771700000000004 0.177512 -0.38336500000000001
-0.75933200000000001 0.20638300000000001 -0.407522
-0.82724200000000003 0.25137799999999999 -0.37940499999999999
-0.78310400000000002 0.27033000000000001 -0.38950699999999999
-0.828793 0.30290600000000001 -0.36254700000000001
-0.83100200000000002 0.33227899999999999 -0.33247399999999999
-0.788906 0.330619 -0.355686
-0.69610399999999995 0.297599 -0.47035900000000003
-0.47720200000000002 -0.019217000000000001 -0.47370200000000001
-0.33165 -0.0071640000000000002 -0.61635399999999996
-0.51056100000000004 0.19791300000000001 -0.587785
-0.70050800000000002 -0.097548999999999997 -0.16230700000000001
-0.69221100000000002 -0.102503 -0.17167399999999999
-0.72033800000000003 -0.082919999999999994 -0.154172
-0.67121600000000003 -0.091756000000000004 -0.15406800000000001
-0.67318100000000003 -0.074789999999999995 -0.12859499999999999
-0.59699999999999998 -0.103298 -0.20808599999999999
-0.74122699999999997 -0.065683000000000005 -0.157142
-0.741259 -0.037761000000000003 -0.16821
-0.71633199999999997 -0.035951999999999998 -0.14579900000000001
-0.70550500000000005 -0.040746999999999998 -0.12740000000000001
-0.71684899999999996 -0.012259000000000001 -0.063322000000000003
-0.57220599999999999 -0.11318499999999999 -0.006241
-0.73673699999999998 0.027237000000000001 -0.17441899999999999
-0.75127500000000003 0.066434999999999994 -0.089599999999999999
-0.79062200000000005 0.176458 -0.164044
-0.126003 -0.049521000000000003 -0.67758700000000005
-0.22595999999999999 -0.23597299999999999 -0.42827300000000001
-0.44648599999999999 -0.15573799999999999 -0.24735199999999999
-0.27856700000000001 -0.29726999999999998 -0.147064
-0.83608099999999996 0.26046599999999998 -0.20916299999999999
-0.85780000000000001 0.30261500000000002 -0.21480299999999999
-0.83181499999999997 0.30565900000000001 -0.167461
-0.88748199999999999 0.34281200000000001 -0.224994
-0.88047900000000001 0.35311100000000001 -0.225969
-0.86002000000000001 0.35591099999999998 -0.23713899999999999
-0.90126700000000004 0.370392 -0.23516000000000001
-0.90963000000000005 0.38352799999999998 -0.24426600000000001
-0.87995999999999996 0.37177199999999999 -0.24723899999999999
-0.85142099999999998 0.349856 -0.23108899999999999
-0.86271900000000001 0.33671600000000002 -0.21717600000000001
-0.84381700000000004 0.34560099999999999 -0.22351299999999999
-0.85161500000000001 0.33496100000000001 -0.21354000000000001
-0.83267400000000003 0.34259400000000001 -0.20041400000000001
-0.82239600000000002 0.37902400000000003 -0.17225099999999999
-0.80191199999999996 0.36820199999999997 -0.29974099999999998
-0.85189599999999999 0.35749300000000001 -0.26152999999999998
-0.82533299999999998 0.345725 -0.28931600000000002
-0.82373099999999999 0.352798 -0.26220500000000002
-0.81243500000000002 0.40150799999999998 -0.213311
-0.68627000000000005 0.49933499999999997 -0.445718
-0.76658099999999996 0.482964 -0.33817000000000003
-0.73045800000000005 0.61798500000000001 -0.27044499999999999
-0.43865300000000002 0.52660200000000001 -0.60079800000000005
-0.19406000000000001 0.28151399999999999 -0.74673699999999998
-0.16444400000000001 0.54534899999999997 -0.70728000000000002
-0.53979999999999995 0.74377099999999996 -0.37395200000000001
-0.22115399999999999 0.89201900000000001 -0.31528200000000001
-0.66105800000000003 -0.0099109999999999997 0.20514199999999999
-0.72458999999999996 0.098090999999999998 0.42135099999999998
-0.769289 0.184891 0.336895
-0.80464100000000005 0.187496 0.040392999999999998
-0.78998500000000005 0.330349 0.20575599999999999
-0.78500199999999998 0.20282900000000001 0.51053800000000005
-0.78928699999999996 0.31404199999999999 0.41086499999999998
-0.78803900000000004 0.38021199999999999 0.47884500000000002
-0.81155200000000005 0.31280200000000002 0.53440600000000005
-0.81268300000000004 0.33861599999999997 0.51926499999999998
-0.80457199999999995 0.38341900000000001 0.54083599999999998
-0.78246099999999996 0.30936599999999997 0.58426299999999998
-0.79975700000000005 0.38063999999999998 0.58055199999999996
-0.78750600000000004 0.41631000000000001 0.57210399999999995
-0.77091799999999999 0.38643899999999998 0.62275599999999998
-0.70960599999999996 0.439807 0.31935799999999998
-0.733344 0.41106999999999999 0.38041900000000001
-0.67234799999999995 0.45501200000000003 0.44298300000000002
-0.68104399999999998 0.477051 0.56201199999999996
-0.80659800000000004 0.48209600000000002 -0.053837000000000003
-0.67694900000000002 0.69383799999999995 -0.068060999999999997
-0.70433800000000002 0.56981899999999996 0.14176
-0.628718 0.51609700000000003 0.28367700000000001
-0.48126099999999999 0.84274199999999999 -0.0021810000000000002
-0.221168 0.89004399999999995 0.12739200000000001
-0.51533399999999996 0.59128099999999995 0.31853799999999999
-0.52798500000000004 0.51433499999999999 0.431479
-0.50583400000000001 0.51842299999999997 0.48307699999999998
-0.42217199999999999 0.55538299999999996 0.43398100000000001
-0.41081000000000001 0.70946200000000004 0.28960999999999998
-0.30778 -0.90611600000000003 0.48112300000000002
-0.29361999999999999 -0.92447900000000005 0.52669299999999997
-0.24426600000000001 -0.93672900000000003 0.480406
-0.304753 -0.85998799999999997 0.43937500000000002
-0.26337300000000002 -0.87939199999999995 0.42447000000000001
-0.27138499999999999 -0.80749099999999996 0.40750799999999998
-0.135851 -0.872587 0.41276099999999999
-0.31973499999999999 -0.854599 0.56354199999999999
-0.31654300000000002 -0.76701699999999995 0.46536899999999998
-0.30222599999999999 -0.76852100000000001 0.61093799999999998
-0.32049499999999997 -0.69442999999999999 0.53184200000000004
-0.31168800000000002 -0.69662199999999996 0.58845400000000003
-0.25480000000000003 -0.67780899999999999 0.66373499999999996
-0.120767 -0.70598700000000003 0.365402
-0.14917900000000001 -0.54878899999999997 0.35228399999999999
-0.055111 -0.52285599999999999 0.31106200000000001
-0.27827600000000002 -0.59335899999999997 0.44217899999999999
-0.29253499999999999 -0.55997300000000005 0.59846500000000002
-0.17948900000000001 -0.56952499999999995 0.71107500000000001
-0.22625899999999999 -0.92839700000000003 0.59631199999999995
-0.26905899999999999 -0.87431899999999996 0.615568
-0.186527 -0.862626 0.66597300000000004
-0.162692 -0.95071300000000003 0.58196199999999998
-0.10764700000000001 -0.96548800000000001 0.54311900000000002
-0.063384999999999997 -0.960727 0.49453399999999997
-0.021687000000000001 -0.97151200000000004 0.537242
-0.043213000000000001 -0.96473500000000001 0.58265500000000003
-0.058043999999999998 -0.94164599999999998 0.62663199999999997
-0.068793999999999994 -0.91012499999999996 0.66276500000000005
-0.023338000000000001 -0.90291200000000005 0.67335
-0.0060210000000000003 -0.86298399999999997 0.66076299999999999
-0.096478999999999995 -0.87049900000000002 0.689469
-0.059641 -0.88155399999999995 0.68722899999999998
-0.065866999999999995 -0.86833899999999997 0.69293099999999996
-0.053469999999999997 -0.86692100000000005 0.69064499999999995
-0.069038000000000002 -0.86132600000000004 0.69476300000000002
-0.070063 -0.85189199999999998 0.694102
-0.056466000000000002 -0.85912599999999995 0.68770900000000001
-0.064935999999999994 -0.838063 0.662026
-0.051649 -0.83506899999999995 0.64793100000000003
-0.04777 -0.852132 0.66340200000000005
-0.030391000000000001 -0.85585100000000003 0.65678199999999998
-0.020348000000000002 -0.84349600000000002 0.64646999999999999
-0.043208999999999997 -0.88604099999999997 0.68542899999999995
-0.042202000000000003 -0.87492499999999995 0.689164
-0.032101999999999999 -0.88417999999999997 0.68661899999999998
-0.033667999999999997 -0.87457600000000002 0.68748600000000004
-0.037018000000000002 -0.86644500000000002 0.68065100000000001
-0.01823 -0.86913099999999999 0.67514099999999999
-0.022532 -0.88231599999999999 0.68706
-0.025260999999999999 -0.87193699999999996 0.682751
-0.014186000000000001 -0.88041199999999997 0.68682299999999996
-0.0065120000000000004 -0.87626700000000002 0.68438900000000003
-0.16780300000000001 -0.78976999999999997 0.69731799999999999
-0.111384 -0.81706199999999995 0.70845899999999995
-0.099736000000000005 -0.83226599999999995 0.705183
-0.086489999999999997 -0.84446200000000005 0.70093899999999998
-0.085503999999999997 -0.83335899999999996 0.70080100000000001
-0.092120999999999995 -0.82757599999999998 0.70492699999999997
-0.087590000000000001 -0.82447199999999998 0.70042000000000004
-0.089092000000000005 -0.80537000000000003 0.68528199999999995
-0.10750999999999999 -0.80405300000000002 0.71245599999999998
-0.097014000000000003 -0.79987399999999997 0.71031900000000003
-0.091938000000000006 -0.80732800000000005 0.70134399999999997
-0.090551999999999994 -0.78363499999999997 0.68509299999999995
-0.092076000000000005 -0.78268800000000005 0.69739499999999999
-0.083606 -0.76596600000000004 0.69589800000000002
-0.10366499999999999 -0.79220900000000005 0.71517900000000001
-0.095365000000000005 -0.78203500000000004 0.71169899999999997
-0.103148 -0.78248399999999996 0.71743299999999999
-0.102662 -0.764629 0.72175400000000001
-0.095629000000000006 -0.77369299999999996 0.71650899999999995
-0.089867000000000002 -0.76814400000000005 0.711148
-0.079505999999999993 -0.826237 0.67868700000000004
-0.081013000000000002 -0.80240999999999996 0.65344800000000003
-0.083333000000000004 -0.80891900000000005 0.66069900000000004
-0.085821999999999996 -0.79561199999999999 0.66113299999999997
-0.076340000000000005 -0.79280099999999998 0.65482300000000004
-0.087249999999999994 -0.78790199999999999 0.66703199999999996
-0.075172000000000003 -0.785103 0.65972299999999995
-0.052828 -0.81482200000000005 0.64729000000000003
-0.053799 -0.76549900000000004 0.68456799999999995
-0.028968000000000001 -0.79516200000000004 0.65562699999999996
-0.022394000000000001 -0.772895 0.67726200000000003
-0.15045900000000001 -0.72996700000000003 0.71438699999999999
-0.090809000000000001 -0.75928799999999996 0.721773
-0.081547999999999995 -0.75760799999999995 0.71736800000000001
-0.083110000000000003 -0.74787199999999998 0.72660800000000003
-0.075883999999999993 -0.75373800000000002 0.721244
-0.066383999999999999 -0.75453700000000001 0.71825499999999998
-0.069385000000000002 -0.73070400000000002 0.730962
-0.036204 -0.75592199999999998 0.72153599999999996
-0.027425999999999999 -0.73386700000000005 0.73283399999999999
-0.082307000000000005 -0.63526499999999997 0.73471500000000001
-0.28013300000000002 -0.296817 0.166855
-0.120878 -0.38837100000000002 -0.017632999999999999
-0.17116300000000001 -0.39940399999999998 0.242788
-0.074392 -0.43571100000000001 0.19772999999999999
-0.17664099999999999 -0.438531 0.32213199999999997
-0.21284700000000001 -0.38439699999999999 0.35018100000000002
-0.247665 -0.41078100000000001 0.42888700000000002
-0.28320899999999999 -0.25861000000000001 0.30627599999999999
-0.26597599999999999 -0.45835999999999999 0.61822600000000005
-0.25580900000000001 -0.35453800000000002 0.56275299999999995
-0.23311799999999999 -0.26611600000000002 0.50230399999999997
-0.21441199999999999 -0.26052599999999998 0.60026999999999997
-0.21454699999999999 -0.22570000000000001 0.55862100000000003
-0.21725900000000001 -0.215918 0.53357200000000005
-0.22248599999999999 -0.19931499999999999 0.52606699999999995
-0.22248000000000001 -0.19334299999999999 0.550508
-0.20536799999999999 -0.20571800000000001 0.59703799999999996
-0.21901999999999999 -0.17852299999999999 0.60055999999999998
-0.44703700000000002 -0.106144 0.402063
-0.42508400000000002 -0.11168 0.53718500000000002
-0.27130199999999999 -0.18914300000000001 0.46646700000000002
-0.29430000000000001 -0.15373999999999999 0.55686899999999995
-0.16390099999999999 -0.361396 0.71129399999999998
-0.094932000000000002 -0.486591 0.738761
-0.042189999999999998 -0.381135 0.74584499999999998
-0.16935600000000001 -0.25451000000000001 0.69576400000000005
-0.100023 -0.29072100000000001 0.74535099999999999
-0.097746 -0.27033800000000002 0.76041999999999998
-0.12576000000000001 -0.26433600000000002 0.73811099999999996
-0.12280000000000001 -0.23349300000000001 0.75047299999999995
-0.111442 -0.24388599999999999 0.77799200000000002
-0.093437999999999993 -0.2571 0.791489
-0.058714000000000002 -0.25592599999999999 0.80697799999999997
-0.032989999999999998 -0.29363899999999998 0.78258099999999997
-0.25584400000000002 -0.100798 0.68921500000000002
-0.16925299999999999 -0.18567900000000001 0.69608099999999995
-0.13972699999999999 -0.14441899999999999 0.75040700000000005
-0.17371500000000001 -0.114244 0.73361699999999996
-0.14027700000000001 -0.050279999999999998 0.76383699999999999
-0.140207 -0.20483000000000001 0.73757099999999998
-0.12041399999999999 -0.213474 0.76051999999999997
-0.128194 -0.19284200000000001 0.74871100000000002
-0.117941 -0.19429399999999999 0.76071699999999998
-0.117079 -0.18421799999999999 0.75539800000000001
-0.120057 -0.16905700000000001 0.754776
-0.11643100000000001 -0.19284999999999999 0.78780700000000004
-0.107129 -0.16622999999999999 0.75777099999999997
-0.101026 -0.158941 0.75956100000000004
-0.10750999999999999 -0.16659399999999999 0.775254
-0.11872000000000001 -0.15371099999999999 0.75764399999999998
-0.094400999999999999 -0.148003 0.75651000000000002
-0.085926000000000002 -0.14390900000000001 0.75673100000000004
-0.077551999999999996 -0.14100299999999999 0.75791399999999998
-0.081174999999999997 -0.143121 0.767845
-0.097222000000000003 -0.152561 0.782335
-0.088163000000000005 -0.094928999999999999 0.76243499999999997
-0.096903000000000003 -0.210453 0.81461899999999998
-0.086588999999999999 -0.16634099999999999 0.80859400000000003
-0.047681000000000001 -0.19605900000000001 0.82054800000000006
-0.039421999999999999 -0.15234800000000001 0.79957999999999996
-0.010597000000000001 -0.164381 0.77846199999999999
-0.069417000000000006 -0.13848199999999999 0.78054500000000004
-0.060037 -0.137102 0.75982799999999995
-0.066021999999999997 -0.129966 0.75434199999999996
-0.056075 -0.131749 0.75466500000000003
-0.047398999999999997 -0.13426099999999999 0.75649299999999997
-0.055841000000000002 -0.13771600000000001 0.76740200000000003
-0.039579000000000003 -0.13991700000000001 0.76809099999999997
-0.028569000000000001 -0.088808999999999999 0.75043400000000005
-0.59597800000000001 -0.020333 0.45229900000000001
-0.64229999999999998 0.023281 0.54332199999999997
-0.70853299999999997 0.14809 0.575264
-0.65269999999999995 0.094297000000000006 0.595526
-0.63836999999999999 0.14299500000000001 0.62712299999999999
-0.58831500000000003 0.173154 0.56983700000000004
-0.60459099999999999 0.090817999999999996 0.62773199999999996
-0.56362500000000004 0.13244900000000001 0.587117
-0.57515000000000005 0.114097 0.65160099999999999
-0.53939999999999999 0.11983099999999999 0.61650000000000005
-0.55780200000000002 0.041565999999999999 0.631799
-0.52212999999999998 0.077321000000000001 0.59553
-0.52047500000000002 0.106653 0.63241999999999998
-0.53368599999999999 0.088473999999999997 0.66385300000000003
-0.71534600000000004 0.25667000000000001 0.61819800000000003
-0.65524000000000004 0.210733 0.63756000000000002
-0.59775 0.26743600000000001 0.56794999999999995
-0.64979600000000004 0.26628000000000002 0.65034599999999998
-0.58003300000000002 0.198459 0.59593399999999996
-0.60708099999999998 0.189833 0.65643300000000004
-0.58342099999999997 0.26575500000000002 0.595225
-0.568689 0.264071 0.62209099999999995
-0.56209200000000004 0.242782 0.63500800000000002
-0.599329 0.24195700000000001 0.66955399999999998
-0.57302299999999995 0.24271300000000001 0.67828100000000002
-0.56153600000000004 0.13226199999999999 0.66496500000000003
-0.53717499999999996 0.14491299999999999 0.64049699999999998
-0.54568099999999997 0.15535299999999999 0.68316699999999997
-0.52287300000000003 0.152112 0.66574199999999994
-0.52671999999999997 0.14824799999999999 0.69137899999999997
-0.52054699999999998 0.11124100000000001 0.68149199999999999
-0.508274 0.11581 0.65804700000000005
-0.50608699999999995 0.099890000000000007 0.68508599999999997
-0.51314800000000005 0.13594700000000001 0.66789500000000002
-0.51804099999999997 0.134432 0.69294900000000004
-0.50840200000000002 0.12055 0.69381599999999999
-0.50893999999999995 0.14212 0.69703800000000005
-0.49718699999999999 0.13192200000000001 0.70088200000000001
-0.49783100000000002 0.15071899999999999 0.69435400000000003
-0.48710399999999998 0.14089499999999999 0.69799299999999997
-0.52404700000000004 0.16789799999999999 0.68942700000000001
-0.514567 0.17353299999999999 0.68619399999999997
-0.51101600000000003 0.15906899999999999 0.69199600000000006
-0.48245900000000003 0.18989900000000001 0.72870999999999997
-0.57927600000000001 0.16155900000000001 0.66458799999999996
-0.55289999999999995 0.182479 0.63705500000000004
-0.56051899999999999 0.19692299999999999 0.68110999999999999
-0.56949099999999997 0.19416600000000001 0.67801599999999995
-0.55209900000000001 0.16964699999999999 0.68279999999999996
-0.53741499999999998 0.18687699999999999 0.66246499999999997
-0.53675700000000004 0.17715800000000001 0.68670600000000004
-0.56278899999999998 0.221856 0.67901199999999995
-0.54847599999999996 0.20119899999999999 0.681342
-0.54281199999999996 0.21584500000000001 0.67666800000000005
-0.54495199999999999 0.22379099999999999 0.66073000000000004
-0.55083599999999999 0.224796 0.67668499999999998
-0.55018400000000001 0.235462 0.67461400000000005
-0.53732599999999997 0.242622 0.67274299999999998
-0.52983800000000003 0.18074200000000001 0.68551300000000004
-0.52318200000000004 0.18426400000000001 0.68320400000000003
-0.53085800000000005 0.194996 0.68056899999999998
-0.53385400000000005 0.20703099999999999 0.67708299999999999
-0.50707500000000005 0.21224699999999999 0.70742499999999997
-0.64925900000000003 0.30526999999999999 0.65693100000000004
-0.58831500000000003 0.314718 0.56983700000000004
-0.61460000000000004 0.29093200000000002 0.66606900000000002
-0.58142099999999997 0.31251299999999999 0.58349099999999998
-0.60348100000000005 0.30941099999999999 0.67172100000000001
-0.60984899999999997 0.34702899999999998 0.67278199999999999
-0.56026600000000004 0.30579800000000001 0.62392800000000004
-0.58474800000000005 0.27430599999999999 0.67818400000000001
-0.57282999999999995 0.31025799999999998 0.68341499999999999
-0.53939999999999999 0.367983 0.61650000000000005
-0.54947000000000001 0.36934800000000001 0.69496199999999997
-0.67564299999999999 0.34575699999999998 0.66328900000000002
-0.73269899999999999 0.38106699999999999 0.65323200000000003
-0.68537000000000003 0.395484 0.68110300000000001
-0.71234299999999995 0.44073299999999999 0.66032900000000005
-0.67483199999999999 0.460368 0.67445200000000005
-0.61629599999999995 0.51475899999999997 0.61416199999999999
-0.61214599999999997 0.50809700000000002 0.67280499999999999
-0.607707 0.41909800000000003 0.70719100000000001
-0.56208800000000003 0.27191199999999999 0.677485
-0.55369500000000005 0.25386599999999998 0.67401599999999995
-0.52749400000000002 0.25982699999999997 0.68478099999999997
-0.53640200000000005 0.26067899999999999 0.67296299999999998
-0.54947900000000005 0.278646 0.67317700000000003
-0.55215000000000003 0.28722199999999998 0.67557199999999995
-0.54380300000000004 0.301122 0.67567200000000005
-0.544215 0.30965300000000001 0.67918299999999998
-0.52490099999999995 0.276891 0.68539799999999995
-0.50642900000000002 0.30657000000000001 0.69893300000000003
-0.53595000000000004 0.31529200000000002 0.67937000000000003
-0.51530699999999996 0.32985900000000001 0.67780799999999997
-0.53786900000000004 0.325376 0.68605400000000005
-0.51314800000000005 0.35029199999999999 0.66789500000000002
-0.51904600000000001 0.33756900000000001 0.69220300000000001
-0.52597000000000005 0.35332200000000002 0.70465599999999995
-0.50634500000000005 0.371195 0.71674199999999999
-0.49524899999999999 0.36019699999999999 0.68225499999999994
-0.49546299999999999 0.34950799999999999 0.70147700000000002
-0.486541 0.35764099999999999 0.71029399999999998
-0.480271 0.398899 0.66400099999999995
-0.50004499999999996 0.38718399999999997 0.71649700000000005
-0.49542599999999998 0.41450100000000001 0.71564899999999998
-0.46781699999999998 0.33780100000000002 0.72449699999999995
-0.47637000000000002 0.36548799999999998 0.71932200000000002
-0.47151700000000002 0.36246699999999998 0.71468100000000001
-0.447158 0.35848099999999999 0.72892299999999999
-0.46954000000000001 0.37662000000000001 0.731012
-0.46089999999999998 0.38945200000000002 0.73676900000000001
-0.45877299999999999 0.36852800000000002 0.72132099999999999
-0.44499100000000003 0.38172899999999998 0.71233500000000005
-0.44770100000000002 0.37563600000000003 0.73010200000000003
-0.46945500000000001 0.243344 0.75481799999999999
-0.43709799999999999 0.31333499999999997 0.77606900000000001
-0.52720800000000001 -0.067272999999999999 0.51184799999999997
-0.51754100000000003 -0.038876000000000001 0.59120700000000004
-0.49745 -0.0033639999999999998 0.63753300000000002
-0.46535799999999999 0.036687999999999998 0.60691300000000004
-0.42912800000000001 -0.053799 0.63349
-0.40008500000000002 0.007365 0.60693399999999997
-0.49801899999999999 0.027851999999999998 0.65629999999999999
-0.45827000000000001 0.047918000000000002 0.63315699999999997
-0.473744 0.042201000000000002 0.67412700000000003
-0.44716400000000001 0.066530000000000006 0.67085600000000001
-0.41723700000000002 0.031282999999999998 0.64127100000000004
-0.44761600000000001 0.015192000000000001 0.67336099999999999
-0.49518400000000001 0.071857000000000004 0.62566100000000002
-0.50959900000000002 0.043580000000000001 0.65807499999999997
-0.48536600000000002 0.082457000000000003 0.65151499999999996
-0.49308800000000003 0.068612000000000006 0.67667900000000003
-0.48124800000000001 0.076058000000000001 0.68733500000000003
-0.46613599999999999 0.067443000000000003 0.69104500000000002
-0.45966200000000002 0.083131999999999998 0.67932700000000001
-0.47332299999999999 0.084095000000000003 0.69709200000000004
-0.491475 0.089444999999999997 0.68873399999999996
-0.48307299999999997 0.112847 0.68489599999999995
-0.48426000000000002 0.096946000000000004 0.69769000000000003
-0.43051400000000001 0.032911999999999997 0.68854300000000002
-0.43888899999999997 0.048967999999999998 0.69377299999999997
-0.425985 0.065430000000000002 0.68621699999999997
-0.44473200000000002 0.069306999999999994 0.70436500000000002
-0.42836099999999999 0.068465999999999999 0.71215700000000004
-0.41114899999999999 0.077424000000000007 0.72423400000000004
-0.452795 0.088597999999999996 0.71162099999999995
-0.464142 0.099489999999999995 0.71026699999999998
-0.44997599999999999 0.097660999999999998 0.70187900000000003
-0.44087399999999999 0.078203999999999996 0.71217600000000003
-0.43815900000000002 0.086235000000000006 0.71730099999999997
-0.410408 0.051476000000000001 0.67822700000000002
-0.41158699999999998 0.028150999999999999 0.69360299999999997
-0.41695399999999999 0.054453000000000001 0.70742300000000002
-0.40281299999999998 0.045943999999999999 0.706982
-0.38952799999999999 0.054370000000000002 0.69340999999999997
-0.41272799999999998 0.069017999999999996 0.71931699999999998
-0.39747700000000002 0.070758000000000001 0.72576499999999999
-0.39874500000000002 0.061665999999999999 0.71958500000000003
-0.38455699999999998 0.049926999999999999 0.71563200000000005
-0.367369 0.049993000000000003 0.72001400000000004
-0.38251200000000002 0.069473999999999994 0.72948100000000005
-0.36683500000000002 0.065267000000000006 0.73073299999999997
-0.35798400000000002 -0.026932999999999999 0.691577
-0.37373499999999998 0.022637999999999998 0.64956400000000003
-0.40236100000000002 0.0021979999999999999 0.68622899999999998
-0.35156599999999999 0.015082 0.64117800000000003
-0.30596600000000002 0.019602000000000001 0.64919199999999999
-0.30276999999999998 -0.034992000000000002 0.71187900000000004
-0.32842100000000002 0.0035699999999999998 0.71336900000000003
-0.31057299999999999 0.039349000000000002 0.68507899999999999
-0.32927099999999998 0.033166000000000001 0.71989999999999998
-0.37000899999999998 0.030599000000000001 0.70833299999999999
-0.35165400000000002 0.042643 0.68940199999999996
-0.34961500000000001 0.057249000000000001 0.72828300000000001
-0.33366899999999999 0.059951999999999998 0.71443500000000004
-0.48744300000000002 0.119656 0.704152
-0.47283900000000001 0.11362700000000001 0.70853699999999997
-0.47827700000000001 0.129552 0.70303199999999999
-0.47165400000000002 0.135877 0.69835700000000001
-0.47448899999999999 0.143816 0.71486099999999997
-0.45879599999999998 0.108553 0.71204500000000004
-0.45360299999999998 0.11586299999999999 0.70872299999999999
-0.46289200000000003 0.12548200000000001 0.70359499999999997
-0.45803500000000003 0.13907900000000001 0.72661699999999996
-0.44373499999999999 0.106984 0.71360299999999999
-0.43319400000000002 0.098805000000000004 0.71813499999999997
-0.42952000000000001 0.106281 0.71356799999999998
-0.41992299999999999 0.096869999999999998 0.72019100000000003
-0.40751500000000002 0.093394000000000005 0.72346600000000005
-0.43086799999999997 0.12834499999999999 0.73989400000000005
-0.39513100000000001 0.088201000000000002 0.72810799999999998
-0.38191199999999997 0.080712000000000006 0.73283799999999999
-0.380994 0.092480999999999994 0.72847700000000004
-0.36715999999999999 0.086832999999999994 0.73513499999999998
-0.35057100000000002 0.071112999999999996 0.73740899999999998
-0.33446599999999999 0.077595999999999998 0.74331700000000001
-0.35244900000000001 0.090746999999999994 0.73737600000000003
-0.33777200000000002 0.095523999999999998 0.73919900000000005
-0.37721700000000002 0.122629 0.76385199999999998
-0.42221599999999998 0.16226699999999999 0.77949100000000004
-0.428562 0.21901699999999999 0.79135699999999998
-0.32937300000000003 0.12817000000000001 0.77874399999999999
-0.27601700000000001 0.16664200000000001 0.80159800000000003
-0.324318 0.190247 0.81878600000000001
-0.38196799999999997 0.25567699999999999 0.80985300000000005
-0.26798499999999997 0.044819999999999999 0.68018299999999998
-0.27807799999999999 -0.0082430000000000003 0.72833099999999995
-0.29549999999999998 0.059032000000000001 0.710368
-0.26473000000000002 0.035087 0.73650700000000002
-0.244864 0.040667000000000002 0.74187599999999998
-0.30997400000000003 0.045073000000000002 0.728047
-0.31375599999999998 0.064707000000000001 0.73722600000000005
-0.30094599999999999 0.075788999999999995 0.73018000000000005
-0.31692100000000001 0.077767000000000003 0.74568900000000005
-0.29598000000000002 0.069970000000000004 0.74156999999999995
-0.30143199999999998 0.085775000000000004 0.75132900000000002
-0.28108699999999998 0.073242000000000002 0.72336199999999995
-0.27875299999999997 0.075958999999999999 0.74568299999999998
-0.285493 0.090963000000000002 0.75503900000000002
-0.27412799999999998 0.063701999999999995 0.74027399999999999
-0.26241100000000001 0.082451999999999998 0.74945499999999998
-0.25675399999999998 0.070251999999999995 0.74446699999999999
-0.29193000000000002 0.10417800000000001 0.75165400000000004
-0.27919100000000002 0.111426 0.752359
-0.27197300000000002 0.099308999999999995 0.75902899999999995
-0.26315300000000003 0.112163 0.75911600000000001
-0.26774900000000001 0.118827 0.75222699999999998
-0.25781300000000001 0.126302 0.75130200000000003
-0.23454800000000001 0.100815 0.73027399999999998
-0.23372399999999999 0.096056000000000002 0.75553400000000004
-0.25439600000000001 0.100007 0.75992000000000004
-0.24370700000000001 0.108724 0.76367200000000002
-0.25287199999999999 0.11992 0.75908799999999998
-0.22787099999999999 0.119223 0.74105299999999996
-0.225553 0.12297 0.76681299999999997
-0.24831800000000001 0.13907900000000001 0.76481100000000002
-0.241645 0.13253499999999999 0.75745499999999999
-0.24069599999999999 0.123432 0.76255399999999995
-0.23357600000000001 0.131216 0.76122299999999998
-0.229744 0.14097999999999999 0.75624199999999997
-0.23874000000000001 0.14968200000000001 0.76590599999999998
-0.223325 0.14681 0.75616700000000003
-0.219393 0.142899 0.76156400000000002
-0.217891 0.15276100000000001 0.75584799999999996
-0.213313 0.15883900000000001 0.75538000000000005
-0.214615 0.169179 0.76012100000000005
-0.18099699999999999 0.077321000000000001 0.65623799999999999
-0.202512 0.039706999999999999 0.75141899999999995
-0.13897000000000001 0.032863999999999997 0.75817900000000005
-0.188947 0.111107 0.703264
-0.21360299999999999 0.091242000000000004 0.75344299999999997
-0.21471100000000001 0.106877 0.72234600000000004
-0.19886400000000001 0.111237 0.75810100000000002
-0.17166999999999999 0.112888 0.75551400000000002
-0.178895 0.11956899999999999 0.75726099999999996
-0.215394 0.11319899999999999 0.76152900000000001
-0.216389 0.131883 0.74234999999999995
-0.21531 0.12693199999999999 0.767235
-0.21085899999999999 0.13503699999999999 0.76765700000000003
-0.18981500000000001 0.12912699999999999 0.76151400000000002
-0.20622499999999999 0.14563300000000001 0.74334699999999998
-0.20738200000000001 0.16320200000000001 0.75777899999999998
-0.207091 0.15317700000000001 0.763293
-0.20028399999999999 0.14751 0.76752399999999998
-0.187832 0.148203 0.76582099999999997
-0.343912 0.311639 0.81393300000000002
-0.37136999999999998 0.337086 0.80114300000000005
-0.34228900000000001 0.35306799999999999 0.79673700000000003
-0.29978300000000002 0.29833700000000002 0.81969700000000001
-0.30714200000000003 0.33310600000000001 0.81156499999999998
-0.27856300000000001 0.32142799999999999 0.80799699999999997
-0.29682599999999998 0.35090300000000002 0.78460700000000005
-0.25214900000000001 0.21254700000000001 0.81039300000000003
-0.26952500000000001 0.225799 0.82041799999999998
-0.24437500000000001 0.24342900000000001 0.80423999999999995
-0.28567700000000001 0.26011600000000001 0.82214900000000002
-0.25684099999999999 0.25319399999999997 0.81740299999999999
-0.24810699999999999 0.26502999999999999 0.80753600000000003
-0.253944 0.274592 0.81299399999999999
-0.27158599999999999 0.28800900000000001 0.81849899999999998
-0.252772 0.29909400000000003 0.79563899999999999
-0.217193 0.27036700000000002 0.77474500000000002
-0.216831 0.29995699999999997 0.76773400000000003
-0.19500899999999999 0.287213 0.76217699999999999
-0.222942 0.31329000000000001 0.76732999999999996
-0.20455899999999999 0.30380800000000002 0.75694300000000003
-0.205508 0.312448 0.76026499999999997
-0.19953399999999999 0.29573899999999997 0.75958999999999999
-0.19739499999999999 0.30496000000000001 0.76571500000000003
-0.185862 0.29719000000000001 0.772227
-0.13575000000000001 0.17855799999999999 0.68573700000000004
-0.1535 0.20363700000000001 0.71746900000000002
-0.108725 0.213727 0.76274200000000003
-0.181342 0.17236299999999999 0.73581300000000005
-0.18709500000000001 0.15703800000000001 0.76712400000000003
-0.189276 0.16753399999999999 0.76736199999999999
-0.180396 0.162189 0.76636400000000005
-0.181089 0.152112 0.72585
-0.17022899999999999 0.146617 0.76027299999999998
-0.155387 0.13730800000000001 0.75585599999999997
-0.17521500000000001 0.18931500000000001 0.73619000000000001
-0.17008400000000001 0.17543400000000001 0.76602999999999999
-0.153417 0.188527 0.76401399999999997
-0.14344699999999999 0.164441 0.75786900000000001
-0.065210000000000004 0.099469000000000002 0.74707000000000001
-0.12288399999999999 0.15087900000000001 0.65153000000000005
-0.111281 0.13814299999999999 0.75148300000000001
-0.069030999999999995 0.182333 0.75700100000000003
-0.20621500000000001 0.17138700000000001 0.75437799999999999
-0.20810400000000001 0.18299699999999999 0.76055499999999998
-0.20345299999999999 0.177866 0.75401899999999999
-0.19670399999999999 0.17269999999999999 0.76246400000000003
-0.216831 0.18653700000000001 0.76773400000000003
-0.201125 0.18449699999999999 0.75379099999999999
-0.20003299999999999 0.199707 0.75032600000000005
-0.19917799999999999 0.21224699999999999 0.76097199999999998
-0.228243 0.205009 0.78075600000000001
-0.183892 0.18201500000000001 0.76797199999999999
-0.19362599999999999 0.19464699999999999 0.75314599999999998
-0.18582699999999999 0.200101 0.76565700000000003
-0.16737299999999999 0.201958 0.76952299999999996
-0.19534099999999999 0.21279200000000001 0.75407999999999997
-0.19194900000000001 0.219279 0.75787499999999997
-0.19717199999999999 0.221474 0.75087499999999996
-0.191359 0.227217 0.75833099999999998
-0.180064 0.208539 0.74512699999999998
-0.183555 0.21601799999999999 0.76662799999999998
-0.17274300000000001 0.22157099999999999 0.77148399999999995
-0.205566 0.242866 0.76817500000000005
-0.193601 0.23624000000000001 0.75539599999999996
-0.19340299999999999 0.24449000000000001 0.75599300000000003
-0.188106 0.24305099999999999 0.76263199999999998
-0.20629700000000001 0.25741000000000003 0.76816600000000002
-0.193465 0.25289600000000001 0.756633
-0.19383900000000001 0.26141500000000001 0.75728899999999999
-0.17747499999999999 0.25982699999999997 0.74521300000000001
-0.18246299999999999 0.25062299999999998 0.76857399999999998
-0.180064 0.276891 0.74512699999999998
-0.18957199999999999 0.26939400000000002 0.76419300000000001
-0.19917799999999999 0.27348499999999998 0.76097199999999998
-0.19574 0.278615 0.75855399999999995
-0.18519099999999999 0.27817199999999997 0.76974900000000002
-0.169872 0.27873799999999999 0.77420199999999995
-0.158077 0.242641 0.72733999999999999
-0.151751 0.238015 0.77007300000000001
-0.137792 0.28510799999999997 0.69691800000000004
-0.12817500000000001 0.28452100000000002 0.77237
-0.19078800000000001 0.35029199999999999 0.72497299999999998
-0.20923600000000001 0.32055699999999998 0.76050399999999996
-0.213389 0.32845600000000003 0.76071
-0.20422100000000001 0.32220100000000002 0.7661
-0.19545599999999999 0.336036 0.77423399999999998
-0.18382399999999999 0.31836300000000001 0.774953
-0.15583 0.35346899999999998 0.777169
-0.221137 0.37369799999999997 0.73198799999999997
-0.234768 0.36104999999999998 0.74953899999999996
-0.23633100000000001 0.36561900000000003 0.76451100000000005
-0.22270300000000001 0.35391699999999998 0.76653499999999997
-0.223274 0.398899 0.71027200000000001
-0.254413 0.38924199999999998 0.73750199999999999
-0.24678 0.372029 0.74800199999999994
-0.27047199999999999 0.36711899999999997 0.76175899999999996
-0.25621899999999997 0.38017499999999999 0.76333700000000004
-0.27626600000000001 0.39005800000000002 0.76203399999999999
-0.273565 0.39551599999999998 0.764845
-0.26536900000000002 0.39446199999999998 0.76660799999999996
-0.245279 0.39379599999999998 0.77117800000000003
-0.197076 0.39681 0.69062000000000001
-0.20327100000000001 0.38006600000000001 0.77536000000000005
-0.182672 0.41156799999999999 0.77962399999999998
-0.121707 0.31251299999999999 0.66365499999999999
-0.096195000000000003 0.30460399999999999 0.78017599999999998
-0.048737000000000003 0.25587300000000002 0.77527699999999999
-0.108267 0.38858500000000001 0.80033200000000004
-0.058495999999999999 0.36233900000000002 0.80266300000000002
-0.038365999999999997 0.404721 0.79923699999999998
-0.15143699999999999 0.37632599999999999 0.66017000000000003
-0.055166 0.46215899999999999 0.67763899999999999
-0.048994999999999997 0.45875700000000003 0.62345099999999998
-0.022345 0.473802 0.59856900000000002
-0.021432 0.44200299999999998 0.67611500000000002
-0.13269900000000001 0.45430700000000002 0.81298800000000004
-0.119135 0.469113 0.81528900000000004
-0.075815999999999995 0.46599400000000002 0.78968799999999995
-0.029642000000000002 0.43479699999999999 0.76275400000000004
-0.058806999999999998 0.47165600000000002 0.73945499999999997
-0.56610400000000005 0.53999299999999995 0.61256299999999997
-0.55785099999999999 0.53152100000000002 0.70059499999999997
-0.47016000000000002 0.60122600000000004 0.64069200000000004
-0.41723700000000002 0.45806799999999998 0.64127100000000004
-0.44116 0.53398800000000002 0.52252699999999996
-0.42026400000000003 0.59455499999999994 0.59371200000000002
-0.46566099999999999 0.45610200000000001 0.73550599999999999
-0.53001200000000004 0.48368499999999998 0.74046999999999996
-0.51466800000000001 0.516123 0.74367300000000003
-0.47804999999999997 0.499029 0.75301899999999999
-0.43922299999999997 0.40593200000000002 0.69410099999999997
-0.45248300000000002 0.410769 0.73200600000000005
-0.42427700000000002 0.44326900000000002 0.73724599999999996
-0.39267600000000003 0.44858199999999998 0.67013100000000003
-0.410883 0.48153400000000002 0.75102100000000005
-0.47453000000000001 0.56314699999999995 0.74386399999999997
-0.43514599999999998 0.52273899999999995 0.76543399999999995
-0.44408599999999998 0.558226 0.76407199999999997
-0.437164 0.60886600000000002 0.73509599999999997
-0.39672400000000002 0.52998699999999999 0.77195599999999998
-0.38750499999999999 0.60816000000000003 0.77548600000000001
-0.34973700000000002 0.569303 0.789045
