-0.064429 -0.758777 0.703586
-0.064958 -0.757382 0.709179
-0.067962 -0.772273 0.671753
-0.069326 -0.768279 0.677977
-0.070362 -0.76516 0.684434
-0.071158 -0.762745 0.690943
-0.071801 -0.760865 0.697323
-0.07238 -0.75935 0.703392
-0.072982 -0.758029 0.70897
0.01031 -0.789912 0.659779
0.009835 -0.797289 0.655192
0.009315 -0.805309 0.651347
0.008772 -0.813682 0.64833
0.008229 -0.822116 0.646229
0.00771 -0.83032 0.645131
0.007236 -0.838002 0.645121
0.020472 -0.78897 0.659986
0.019535 -0.796401 0.655379
0.01851 -0.804483 0.651513
0.017441 -0.81292 0.648474
0.016373 -0.821419 0.646351
0.015352 -0.829687 0.645231
0.014421 -0.837427 0.645203
0.030341 -0.787675 0.660255
0.028968 -0.795163 0.655627
0.027466 -0.803307 0.651737
0.025904 -0.811812 0.648674
0.024347 -0.820382 0.646526
0.02286 -0.828718 0.645383
0.021505 -0.836522 0.645334
0.039768 -0.786255 0.660524
0.037998 -0.793768 0.655881
0.036065 -0.801945 0.651975
0.034058 -0.810489 0.648895
0.032064 -0.819103 0.64673
0.030165 -0.827484 0.645572
0.028439 -0.83533 0.64551
0.048608 -0.784934 0.66073
0.046491 -0.792413 0.656087
0.044185 -0.800562 0.652183
0.0418 -0.809084 0.649105
0.03944 -0.817683 0.646941
0.037201 -0.826055 0.645784
0.03517 -0.833895 0.645727
0.056713 -0.783937 0.660812
0.054314 -0.791295 0.656194
0.051709 -0.799321 0.652318
0.049026 -0.807728 0.64927
0.04639 -0.816223 0.647136
0.0439 -0.824502 0.646007
0.041649 -0.832261 0.645981
0.063935 -0.783491 0.660707
0.061331 -0.790609 0.656146
0.058516 -0.798388 0.652337
0.055635 -0.806553 0.649357
0.052828 -0.814822 0.64729
0.050194 -0.822896 0.646228
0.047826 -0.830471 0.646268
-0.047826 -0.830471 0.646268
-0.041649 -0.832261 0.645981
-0.03517 -0.833895 0.645727
-0.028439 -0.83533 0.64551
-0.021505 -0.836522 0.645334
-0.014421 -0.837427 0.645203
-0.007236 -0.838002 0.645121
-0.050194 -0.822896 0.646228
-0.0439 -0.824502 0.646007
-0.037201 -0.826055 0.645784
-0.030165 -0.827484 0.645572
-0.02286 -0.828718 0.645383
-0.015352 -0.829687 0.645231
-0.00771 -0.83032 0.645131
-0.052828 -0.814822 0.64729
-0.04639 -0.816222 0.647136
-0.03944 -0.817683 0.646941
-0.032064 -0.819103 0.64673
-0.024347 -0.820382 0.646526
-0.016373 -0.821419 0.646351
-0.008229 -0.822116 0.646229
-0.055635 -0.806553 0.649357
-0.049026 -0.807728 0.64927
-0.0418 -0.809084 0.649105
-0.034058 -0.810489 0.648895
-0.025904 -0.811812 0.648674
-0.017441 -0.81292 0.648475
-0.008772 -0.813682 0.64833
-0.058516 -0.798388 0.652337
-0.051709 -0.799321 0.652318
-0.044185 -0.800562 0.652183
-0.036065 -0.801945 0.651975
-0.027466 -0.803307 0.651737
-0.01851 -0.804483 0.651513
-0.009315 -0.805309 0.651347
-0.061331 -0.790609 0.656146
-0.054314 -0.791295 0.656194
-0.046491 -0.792413 0.656087
-0.037998 -0.793768 0.655881
-0.028968 -0.795162 0.655627
-0.019535 -0.796402 0.655379
-0.009835 -0.797289 0.655192
-0.063935 -0.783491 0.660707
-0.056713 -0.783937 0.660812
-0.048608 -0.784934 0.66073
-0.039768 -0.786255 0.660524
-0.030341 -0.787676 0.660255
-0.020472 -0.78897 0.659986
-0.01031 -0.789912 0.659779
0.075754 -0.805564 0.649704
0.075172 -0.785103 0.659723
0.072431 -0.79128 0.655411
0.069509 -0.798067 0.651887
0.066589 -0.805239 0.649205
0.079037 -0.787311 0.658924
0.07634 -0.792801 0.654823
0.073495 -0.798803 0.651563
0.070737 -0.805147 0.64915
0.081725 -0.790372 0.6581
0.079096 -0.79511 0.65426
0.076353 -0.800149 0.651357
0.07387 -0.805317 0.649342
0.059076 -0.826568 0.646949
0.064084 -0.824372 0.647498
0.06866 -0.821849 0.64839
0.072805 -0.818852 0.649782
0.06131 -0.819766 0.64664
0.066056 -0.818155 0.64701
0.070268 -0.816283 0.647731
0.074048 -0.813838 0.648984
0.063832 -0.812562 0.647425
0.068261 -0.811667 0.647599
0.071948 -0.810691 0.648108
0.075111 -0.809057 0.649122
0.082331 -0.808076 0.65727
0.083185 -0.803533 0.656805
0.083617 -0.79875 0.656901
0.083232 -0.794227 0.657382
0.079705 -0.811581 0.654319
0.080554 -0.807007 0.653531
0.081013 -0.80241 0.653448
0.080645 -0.798307 0.653775
0.076506 -0.815324 0.651784
0.077487 -0.810618 0.650914
0.078128 -0.806092 0.650863
0.077929 -0.802423 0.651168
-0.075754 -0.805564 0.649704
-0.082331 -0.808076 0.65727
-0.079705 -0.811581 0.654319
-0.076506 -0.815324 0.651784
-0.072805 -0.818852 0.649782
-0.083185 -0.803533 0.656805
-0.080554 -0.807007 0.653531
-0.077487 -0.810618 0.650914
-0.074048 -0.813838 0.648984
-0.083617 -0.79875 0.656901
-0.081013 -0.80241 0.653448
-0.078128 -0.806092 0.650863
-0.075111 -0.809057 0.649122
-0.059076 -0.826568 0.646949
-0.06131 -0.819766 0.64664
-0.063832 -0.812562 0.647425
-0.066589 -0.805239 0.649205
-0.064084 -0.824372 0.647498
-0.066056 -0.818155 0.64701
-0.068261 -0.811667 0.647599
-0.070737 -0.805147 0.64915
-0.06866 -0.821849 0.64839
-0.070268 -0.816283 0.647731
-0.071948 -0.810691 0.648108
-0.07387 -0.805317 0.649342
-0.075172 -0.785103 0.659723
-0.079037 -0.787311 0.658924
-0.081725 -0.790372 0.6581
-0.083232 -0.794227 0.657382
-0.072431 -0.79128 0.655411
-0.07634 -0.792801 0.654823
-0.079096 -0.79511 0.65426
-0.080645 -0.798307 0.653775
-0.069509 -0.798067 0.651887
-0.073495 -0.798803 0.651563
-0.076353 -0.800149 0.651357
-0.077929 -0.802423 0.651168
0.132563 0.204753 0.762796
0.134767 0.194258 0.761428
0.13731 0.184035 0.760128
0.140202 0.174093 0.75893
0.143447 0.164441 0.757869
0.147055 0.155087 0.75698
0.151033 0.14604 0.756297
0.141389 0.206118 0.764333
0.143547 0.196134 0.763171
0.146041 0.186437 0.762047
0.148871 0.177032 0.76099
0.152035 0.167923 0.76003
0.155533 0.159118 0.759197
0.159361 0.15062 0.758519
0.148954 0.207381 0.766001
0.151018 0.197807 0.764999
0.153417 0.188527 0.764014
0.156146 0.179542 0.763072
0.159199 0.170855 0.7622
0.162568 0.16247 0.761425
0.166246 0.15439 0.760773
0.155425 0.20856 0.767645
0.157359 0.199312 0.766766
0.15963 0.190357 0.765888
0.162228 0.181695 0.765038
0.165146 0.173328 0.764244
0.168374 0.165258 0.76353
0.171904 0.157485 0.762924
0.160969 0.209675 0.769111
0.162751 0.200684 0.768323
0.16487 0.19198 0.767528
0.167317 0.183563 0.766755
0.170084 0.175434 0.766029
0.173164 0.167593 0.76538
0.176548 0.160039 0.764833
0.165755 0.210746 0.770244
0.167373 0.201958 0.769523
0.169327 0.193449 0.768794
0.171613 0.185219 0.768085
0.174223 0.177266 0.767424
0.177152 0.169589 0.766841
0.180396 0.162189 0.766364
0.169949 0.211792 0.770889
0.171404 0.20317 0.770219
0.173194 0.194818 0.769544
0.175317 0.186733 0.768893
0.17777 0.178914 0.768295
0.180552 0.17136 0.767781
0.183661 0.164068 0.767381
-0.183661 0.164068 0.767381
-0.180396 0.162189 0.766364
-0.176548 0.160039 0.764833
-0.171904 0.157485 0.762924
-0.166246 0.15439 0.760773
-0.159361 0.15062 0.758519
-0.151033 0.14604 0.756297
-0.180552 0.17136 0.767781
-0.177152 0.169589 0.766841
-0.173164 0.167593 0.76538
-0.168374 0.165258 0.76353
-0.162568 0.16247 0.761425
-0.155533 0.159118 0.759197
-0.147055 0.155087 0.75698
-0.17777 0.178914 0.768295
-0.174223 0.177266 0.767424
-0.170084 0.175434 0.76603
-0.165146 0.173328 0.764244
-0.159199 0.170855 0.7622
-0.152035 0.167924 0.76003
-0.143447 0.164441 0.757869
-0.175317 0.186733 0.768893
-0.171613 0.185219 0.768085
-0.167317 0.183563 0.766755
-0.162228 0.181695 0.765038
-0.156146 0.179542 0.763072
-0.148871 0.177032 0.76099
-0.140202 0.174093 0.75893
-0.173194 0.194818 0.769544
-0.169327 0.193449 0.768794
-0.16487 0.19198 0.767528
-0.15963 0.190357 0.765888
-0.153417 0.188527 0.764014
-0.146041 0.186437 0.762047
-0.13731 0.184035 0.760127
-0.171404 0.20317 0.770219
-0.167373 0.201958 0.769523
-0.162751 0.200684 0.768323
-0.157359 0.199312 0.766766
-0.151018 0.197807 0.764999
-0.143547 0.196134 0.763171
-0.134767 0.194258 0.761428
-0.169949 0.211792 0.770888
-0.165755 0.210746 0.770244
-0.160969 0.209675 0.769111
-0.155425 0.20856 0.767645
-0.148954 0.207381 0.766001
-0.141389 0.206118 0.764333
-0.132563 0.204753 0.762796
0.129683 0.296527 0.773626
0.128175 0.284521 0.77237
0.127305 0.272616 0.771072
0.12702 0.260838 0.76974
0.127268 0.249213 0.76838
0.127997 0.237767 0.766998
0.129156 0.226525 0.765602
0.13876 0.294574 0.773045
0.137308 0.282894 0.772052
0.13645 0.271343 0.771029
0.136141 0.259946 0.769976
0.136342 0.248727 0.768895
0.137008 0.23771 0.767788
0.138098 0.226921 0.766657
0.146894 0.29294 0.773026
0.145454 0.281579 0.772249
0.144567 0.270361 0.771448
0.144199 0.259308 0.770619
0.144315 0.248446 0.769762
0.144882 0.237799 0.768872
0.145866 0.22739 0.76795
0.154161 0.291592 0.773366
0.152699 0.280542 0.772762
0.151754 0.269634 0.772135
0.151299 0.258894 0.771481
0.151308 0.248346 0.770796
0.151751 0.238015 0.770073
0.152603 0.227924 0.76931
0.160635 0.290497 0.773863
0.159127 0.279746 0.77339
0.158106 0.269129 0.772895
0.157551 0.258672 0.772372
0.157438 0.248401 0.771814
0.157746 0.23834 0.771215
0.158451 0.228516 0.770568
0.16639 0.289623 0.774314
0.164823 0.279157 0.773937
0.163719 0.26881 0.773535
0.16306 0.258611 0.773103
0.162825 0.248584 0.772633
0.162997 0.238758 0.772119
0.163554 0.229159 0.771553
0.1715 0.288934 0.774517
0.169872 0.278738 0.774202
0.16869 0.268643 0.77386
0.167934 0.258678 0.773485
0.167588 0.248871 0.77307
0.167634 0.239251 0.772609
0.168055 0.229846 0.772095
-0.168055 0.229846 0.772095
-0.163554 0.229159 0.771553
-0.158451 0.228516 0.770568
-0.152603 0.227924 0.76931
-0.145866 0.22739 0.76795
-0.138098 0.226921 0.766657
-0.129156 0.226525 0.765602
-0.167634 0.239251 0.772609
-0.162997 0.238758 0.772119
-0.157746 0.23834 0.771215
-0.151751 0.238015 0.770073
-0.144882 0.237799 0.768872
-0.137008 0.23771 0.767788
-0.127997 0.237767 0.766998
-0.167588 0.248871 0.77307
-0.162825 0.248584 0.772633
-0.157438 0.248401 0.771814
-0.151308 0.248346 0.770796
-0.144315 0.248446 0.769761
-0.136342 0.248727 0.768895
-0.127268 0.249213 0.76838
-0.167934 0.258678 0.773485
-0.16306 0.258611 0.773103
-0.15755 0.258672 0.772372
-0.151299 0.258894 0.771481
-0.144199 0.259308 0.770619
-0.136141 0.259946 0.769976
-0.12702 0.260838 0.76974
-0.16869 0.268643 0.77386
-0.163719 0.26881 0.773535
-0.158106 0.269129 0.772895
-0.151754 0.269634 0.772135
-0.144567 0.270361 0.771448
-0.13645 0.271343 0.771029
-0.127305 0.272616 0.771072
-0.169872 0.278738 0.774202
-0.164823 0.279157 0.773937
-0.159127 0.279746 0.77339
-0.152699 0.280542 0.772762
-0.145454 0.281579 0.772249
-0.137308 0.282894 0.772052
-0.128175 0.284521 0.77237
-0.1715 0.288934 0.774517
-0.16639 0.289623 0.774314
-0.160635 0.290497 0.773863
-0.154161 0.291592 0.773366
-0.146894 0.29294 0.773026
-0.13876 0.294574 0.773045
-0.129683 0.296527 0.773626
0.166897 0.390818 0.780055
0.159912 0.379787 0.779864
0.153557 0.368408 0.779437
0.14785 0.356747 0.778806
0.142811 0.34487 0.778
0.138457 0.332844 0.777049
0.134807 0.320735 0.775984
0.173816 0.386576 0.778001
0.167196 0.375912 0.777932
0.161198 0.36485 0.777644
0.15583 0.353469 0.777169
0.151101 0.34185 0.776537
0.147021 0.330073 0.775778
0.1436 0.318215 0.774924
0.180288 0.382474 0.776756
0.173979 0.372169 0.776782
0.168275 0.361438 0.776607
0.163178 0.350366 0.776263
0.158692 0.339042 0.775777
0.154819 0.327552 0.775182
0.151561 0.315982 0.774506
0.186318 0.378539 0.776101
0.18027 0.368584 0.776196
0.174805 0.358191 0.77611
0.169922 0.347449 0.775872
0.165619 0.336447 0.775509
0.161893 0.325272 0.77505
0.158744 0.314014 0.774522
0.191914 0.374799 0.775817
0.186081 0.365183 0.775958
0.180807 0.355131 0.775939
0.176086 0.344729 0.775785
0.171914 0.334065 0.77552
0.168288 0.323223 0.775172
0.165202 0.312292 0.774763
0.197081 0.371283 0.775686
0.191425 0.361993 0.775851
0.186297 0.352277 0.775877
0.181695 0.342218 0.775786
0.177612 0.331897 0.775598
0.174045 0.321395 0.775336
0.17099 0.310796 0.775021
0.201825 0.368019 0.775488
0.196311 0.359039 0.775658
0.191295 0.349649 0.775711
0.186775 0.339925 0.775662
0.182748 0.329943 0.775531
0.17921 0.319779 0.775334
0.176158 0.309506 0.775088
-0.176158 0.309506 0.775088
-0.17099 0.310796 0.775021
-0.165202 0.312292 0.774763
-0.158744 0.314014 0.774522
-0.151561 0.315982 0.774506
-0.143599 0.318215 0.774924
-0.134807 0.320735 0.775984
-0.17921 0.319779 0.775334
-0.174045 0.321395 0.775336
-0.168288 0.323223 0.775171
-0.161893 0.325272 0.77505
-0.154819 0.327552 0.775182
-0.147021 0.330072 0.775778
-0.138457 0.332844 0.777049
-0.182748 0.329943 0.775531
-0.177612 0.331897 0.775598
-0.171914 0.334065 0.77552
-0.165619 0.336447 0.775509
-0.158692 0.339042 0.775777
-0.151101 0.34185 0.776537
-0.142811 0.34487 0.778
-0.186775 0.339925 0.775662
-0.181695 0.342218 0.775786
-0.176086 0.344729 0.775784
-0.169922 0.347449 0.775872
-0.163178 0.350366 0.776263
-0.15583 0.353469 0.777169
-0.14785 0.356747 0.778806
-0.191295 0.349649 0.775711
-0.186297 0.352277 0.775877
-0.180807 0.355131 0.775939
-0.174805 0.358191 0.77611
-0.168275 0.361438 0.776607
-0.161198 0.36485 0.777644
-0.153557 0.368408 0.779437
-0.196311 0.359039 0.775658
-0.191425 0.361993 0.775851
-0.186081 0.365183 0.775958
-0.18027 0.368584 0.776196
-0.173979 0.372169 0.776782
-0.167196 0.375912 0.777932
-0.159912 0.379787 0.779863
-0.201825 0.368019 0.775488
-0.197081 0.371283 0.775686
-0.191914 0.374799 0.775817
-0.186318 0.378539 0.776101
-0.180288 0.382474 0.776756
-0.173816 0.386576 0.778001
-0.166897 0.390818 0.780055
0.160158 0.128892 0.75566
0.165518 0.120764 0.755594
0.17167 0.112888 0.755514
0.178817 0.105227 0.755274
0.187165 0.097747 0.754728
0.196917 0.09041 0.753731
0.208277 0.083181 0.752138
0.168042 0.134561 0.757722
0.173098 0.126955 0.757509
0.178895 0.119569 0.757261
0.185638 0.112354 0.756855
0.193534 0.105261 0.756166
0.202787 0.09824 0.75507
0.213603 0.091242 0.753443
0.174543 0.139145 0.759928
0.179359 0.131928 0.759649
0.184882 0.124908 0.759325
0.191315 0.11803 0.758847
0.198864 0.111237 0.758101
0.207733 0.104474 0.756979
0.218126 0.097683 0.755367
0.17987 0.142827 0.762117
0.184499 0.135885 0.76184
0.189815 0.129127 0.761514
0.196018 0.122494 0.761037
0.203309 0.115929 0.760305
0.21189 0.109373 0.759213
0.221962 0.102768 0.757657
0.18423 0.145786 0.764134
0.188716 0.13903 0.763908
0.193879 0.13245 0.763636
0.199917 0.125989 0.763217
0.207023 0.11959 0.762548
0.215394 0.113199 0.761529
0.225225 0.106759 0.760058
0.187832 0.148203 0.765821
0.192207 0.141566 0.76568
0.197261 0.1351 0.765499
0.203183 0.128753 0.765174
0.210159 0.122475 0.764603
0.21838 0.116215 0.763685
0.228032 0.10992 0.762317
0.190882 0.150259 0.767019
0.195172 0.143695 0.766982
0.200146 0.1373 0.76691
0.205986 0.131029 0.766698
0.21287 0.124838 0.766241
0.220981 0.118681 0.765436
0.230499 0.112514 0.764178
-0.230499 0.112514 0.764178
-0.228032 0.10992 0.762317
-0.225225 0.106759 0.760058
-0.221962 0.102768 0.757657
-0.218126 0.097683 0.755367
-0.213603 0.091242 0.753443
-0.208277 0.083182 0.752138
-0.220981 0.118681 0.765436
-0.21838 0.116215 0.763685
-0.215394 0.113199 0.761529
-0.21189 0.109373 0.759213
-0.207733 0.104474 0.756979
-0.202787 0.09824 0.75507
-0.196917 0.09041 0.753731
-0.21287 0.124838 0.766241
-0.210159 0.122475 0.764603
-0.207023 0.11959 0.762548
-0.203309 0.115929 0.760305
-0.198864 0.111237 0.758101
-0.193534 0.105261 0.756166
-0.187165 0.097747 0.754728
-0.205986 0.131029 0.766698
-0.203183 0.128753 0.765174
-0.199917 0.125988 0.763217
-0.196018 0.122494 0.761037
-0.191315 0.11803 0.758847
-0.185638 0.112354 0.756855
-0.178817 0.105227 0.755274
-0.200146 0.1373 0.76691
-0.197261 0.1351 0.765499
-0.193879 0.13245 0.763636
-0.189815 0.129127 0.761514
-0.184882 0.124908 0.759325
-0.178895 0.119569 0.757261
-0.17167 0.112888 0.755514
-0.195172 0.143695 0.766982
-0.192207 0.141566 0.76568
-0.188716 0.13903 0.763908
-0.184499 0.135885 0.76184
-0.179359 0.131928 0.759649
-0.173098 0.126955 0.757509
-0.165518 0.120764 0.755594
-0.190882 0.150259 0.767018
-0.187832 0.148203 0.765821
-0.18423 0.145786 0.764134
-0.17987 0.142827 0.762117
-0.174543 0.139145 0.759928
-0.168042 0.134561 0.757722
-0.160158 0.128892 0.75566
0.236543 0.068944 0.746632
0.253297 0.062104 0.742722
0.271358 0.055709 0.738222
0.290368 0.049964 0.733281
0.309974 0.045073 0.728047
0.32982 0.041242 0.722668
0.34955 0.038673 0.717293
0.240659 0.077164 0.748139
0.256754 0.070252 0.744467
0.274128 0.063702 0.740274
0.29243 0.057733 0.735689
0.311311 0.052562 0.730841
0.330424 0.048408 0.725861
0.349419 0.04549 0.720876
0.244215 0.083843 0.750272
0.259772 0.076961 0.746795
0.276579 0.070388 0.742841
0.294293 0.064348 0.738527
0.312571 0.059064 0.73397
0.331071 0.054761 0.729288
0.349451 0.051662 0.724597
0.247289 0.089225 0.752775
0.262411 0.082452 0.749455
0.278753 0.075959 0.745683
0.29598 0.06997 0.74157
0.313756 0.064707 0.737226
0.331746 0.060392 0.73276
0.349615 0.057249 0.728283
0.249959 0.093552 0.755389
0.264728 0.086945 0.752197
0.28069 0.08061 0.748564
0.297515 0.074762 0.744596
0.314873 0.069619 0.740402
0.332437 0.065397 0.736089
0.349877 0.062313 0.731762
0.252302 0.097065 0.757857
0.266785 0.09066 0.75477
0.282432 0.084531 0.751242
0.29892 0.078886 0.747381
0.315927 0.07393 0.743292
0.33313 0.06987 0.739084
0.350207 0.066914 0.734862
0.254396 0.100007 0.75992
0.26864 0.093818 0.756923
0.284019 0.087918 0.75348
0.300218 0.082503 0.749699
0.316921 0.077767 0.745689
0.33381 0.073905 0.741556
0.350572 0.071113 0.737409
-0.350571 0.071113 0.737409
-0.350207 0.066914 0.734862
-0.349877 0.062313 0.731762
-0.349615 0.057249 0.728283
-0.349451 0.051662 0.724597
-0.349419 0.04549 0.720876
-0.34955 0.038673 0.717293
-0.33381 0.073905 0.741556
-0.33313 0.06987 0.739084
-0.332437 0.065397 0.736089
-0.331746 0.060392 0.73276
-0.331071 0.054761 0.729288
-0.330424 0.048408 0.725861
-0.32982 0.041241 0.722668
-0.316921 0.077767 0.745689
-0.315927 0.07393 0.743292
-0.314873 0.069619 0.740402
-0.313756 0.064707 0.737226
-0.312571 0.059064 0.73397
-0.311311 0.052562 0.730841
-0.309974 0.045073 0.728047
-0.300218 0.082503 0.7497
-0.29892 0.078886 0.747381
-0.297515 0.074762 0.744596
-0.29598 0.06997 0.74157
-0.294292 0.064348 0.738527
-0.29243 0.057733 0.735689
-0.290368 0.049964 0.733281
-0.284019 0.087918 0.75348
-0.282432 0.084531 0.751242
-0.28069 0.08061 0.748563
-0.278753 0.075959 0.745683
-0.276579 0.070388 0.742841
-0.274128 0.063702 0.740274
-0.271358 0.055709 0.738222
-0.26864 0.093818 0.756923
-0.266785 0.09066 0.75477
-0.264728 0.086945 0.752197
-0.262411 0.082452 0.749455
-0.259772 0.076961 0.746795
-0.256754 0.070252 0.744467
-0.253297 0.062104 0.742722
-0.254396 0.100007 0.75992
-0.252302 0.097065 0.757857
-0.249959 0.093552 0.755389
-0.247289 0.089225 0.752775
-0.244215 0.083843 0.750272
-0.240659 0.077164 0.748139
-0.236543 0.068944 0.746632
0.38732 0.038098 0.70712
0.405104 0.040221 0.702439
0.42226 0.04387 0.698
0.438889 0.048968 0.693773
0.455089 0.055442 0.689727
0.470959 0.063219 0.685834
0.4866 0.072223 0.682063
0.385735 0.044187 0.711387
0.402813 0.045944 0.706982
0.419287 0.049224 0.702775
0.435261 0.05395 0.698735
0.450843 0.060048 0.694835
0.466136 0.067443 0.691045
0.481248 0.076058 0.687336
0.384557 0.049927 0.715632
0.401049 0.051438 0.711445
0.416954 0.054453 0.707424
0.43238 0.058895 0.703537
0.447437 0.064691 0.699754
0.462232 0.071764 0.696046
0.476876 0.080041 0.692383
0.383716 0.055321 0.71971
0.399723 0.056685 0.715692
0.415155 0.05952 0.711817
0.430122 0.063751 0.708052
0.444732 0.069307 0.704365
0.459096 0.076112 0.700722
0.473323 0.084095 0.697092
0.383141 0.060375 0.723475
0.398745 0.061666 0.719585
0.413782 0.064387 0.715825
0.428361 0.068466 0.712157
0.442591 0.073832 0.708546
0.456578 0.080415 0.704955
0.470432 0.088143 0.701348
0.382763 0.065091 0.726781
0.398026 0.066364 0.722988
0.412728 0.069018 0.719317
0.426976 0.072987 0.715726
0.440874 0.078204 0.712176
0.454528 0.0846 0.708627
0.468044 0.092109 0.705039
0.382512 0.069474 0.729481
0.397477 0.070758 0.725764
0.411886 0.073376 0.722163
0.42584 0.077264 0.718634
0.439443 0.082359 0.715135
0.452795 0.088598 0.711621
0.466 0.095917 0.708049
-0.466 0.095917 0.708049
-0.468044 0.092109 0.705039
-0.470432 0.088143 0.701348
-0.473323 0.084095 0.697092
-0.476876 0.080041 0.692383
-0.481248 0.076058 0.687335
-0.4866 0.072223 0.682063
-0.452795 0.088598 0.711621
-0.454528 0.0846 0.708627
-0.456578 0.080415 0.704955
-0.459096 0.076112 0.700722
-0.462232 0.071764 0.696046
-0.466136 0.067443 0.691045
-0.470959 0.063219 0.685834
-0.439443 0.082359 0.715135
-0.440874 0.078204 0.712176
-0.442591 0.073832 0.708545
-0.444732 0.069307 0.704365
-0.447437 0.064691 0.699754
-0.450843 0.060048 0.694835
-0.455089 0.055442 0.689727
-0.425841 0.077264 0.718634
-0.426976 0.072987 0.715726
-0.428361 0.068466 0.712157
-0.430122 0.063751 0.708052
-0.43238 0.058895 0.703537
-0.435261 0.05395 0.698735
-0.438889 0.048968 0.693773
-0.411886 0.073376 0.722163
-0.412728 0.069018 0.719317
-0.413782 0.064387 0.715825
-0.415155 0.05952 0.711817
-0.416954 0.054453 0.707423
-0.419287 0.049224 0.702775
-0.42226 0.04387 0.698
-0.397477 0.070758 0.725765
-0.398026 0.066364 0.722988
-0.398745 0.061666 0.719585
-0.399723 0.056685 0.715692
-0.401049 0.051438 0.711445
-0.402813 0.045944 0.706982
-0.405104 0.040221 0.702439
-0.382512 0.069474 0.729481
-0.382763 0.065091 0.726781
-0.383141 0.060375 0.723475
-0.383716 0.055321 0.71971
-0.384557 0.049927 0.715632
-0.385735 0.044187 0.711387
-0.38732 0.038098 0.70712
0.517536 0.093606 0.674783
0.532722 0.105761 0.671306
0.547458 0.118696 0.668013
0.561536 0.132262 0.664965
0.574746 0.146308 0.662222
0.586879 0.160685 0.659845
0.597727 0.175243 0.657895
0.511295 0.096638 0.68006
0.526121 0.108378 0.676531
0.540546 0.120889 0.673153
0.554357 0.134023 0.669994
0.567339 0.147629 0.667117
0.579276 0.161559 0.664588
0.589954 0.175663 0.662471
0.506086 0.09989 0.685086
0.520547 0.111241 0.681492
0.534639 0.123351 0.678023
0.548149 0.136073 0.67475
0.560858 0.149259 0.671742
0.572551 0.162764 0.669071
0.583012 0.176439 0.666808
0.501748 0.103284 0.689755
0.515841 0.114275 0.686092
0.529586 0.126009 0.68253
0.542769 0.138343 0.679145
0.555175 0.151133 0.676015
0.566589 0.164237 0.673215
0.576797 0.17751 0.670824
0.498117 0.106742 0.693964
0.511845 0.117404 0.690233
0.525235 0.128791 0.686581
0.538077 0.140765 0.683093
0.550159 0.153186 0.679851
0.561271 0.165916 0.676939
0.571203 0.178816 0.67444
0.49503 0.110185 0.697608
0.508402 0.12055 0.693816
0.521437 0.131623 0.690085
0.533932 0.143269 0.686506
0.545681 0.155353 0.683167
0.55648 0.16774 0.68016
0.566125 0.180296 0.677575
0.492327 0.113535 0.700585
0.505353 0.123638 0.696744
0.518041 0.134432 0.692949
0.530193 0.145786 0.689297
0.541612 0.157568 0.685882
0.552099 0.169647 0.6828
0.561458 0.18189 0.680146
-0.561458 0.18189 0.680146
-0.566125 0.180296 0.677575
-0.571203 0.178816 0.67444
-0.576797 0.17751 0.670824
-0.583012 0.176439 0.666808
-0.589954 0.175663 0.662471
-0.597727 0.175243 0.657895
-0.552099 0.169647 0.6828
-0.55648 0.16774 0.68016
-0.561271 0.165916 0.676939
-0.566589 0.164237 0.673215
-0.572551 0.162764 0.669071
-0.579276 0.161559 0.664588
-0.586879 0.160685 0.659845
-0.541612 0.157568 0.685882
-0.545681 0.155353 0.683167
-0.550159 0.153186 0.679851
-0.555175 0.151133 0.676015
-0.560858 0.149259 0.671742
-0.567339 0.147629 0.667117
-0.574746 0.146308 0.662222
-0.530193 0.145786 0.689297
-0.533932 0.143269 0.686506
-0.538077 0.140765 0.683093
-0.542769 0.138343 0.679145
-0.548149 0.136073 0.67475
-0.554357 0.134023 0.669994
-0.561536 0.132262 0.664965
-0.518041 0.134432 0.692949
-0.521437 0.131623 0.690085
-0.525236 0.128791 0.686581
-0.529586 0.126009 0.68253
-0.534639 0.123351 0.678023
-0.540547 0.120889 0.673153
-0.547458 0.118696 0.668013
-0.505353 0.123638 0.696744
-0.508402 0.12055 0.693816
-0.511845 0.117404 0.690233
-0.515841 0.114275 0.686092
-0.520547 0.111241 0.681492
-0.526121 0.108378 0.67653
-0.532722 0.105761 0.671306
-0.492327 0.113535 0.700585
-0.49503 0.110185 0.697608
-0.498117 0.106742 0.693964
-0.501748 0.103284 0.689755
-0.506087 0.09989 0.685086
-0.511295 0.096638 0.68006
-0.517536 0.093606 0.674783
0.614784 0.204318 0.655501
0.620898 0.218616 0.655071
0.625535 0.232658 0.6551
0.628809 0.246377 0.655541
0.630834 0.259705 0.656349
0.631724 0.272572 0.657479
0.63159 0.28491 0.658887
0.60673 0.203812 0.659715
0.61273 0.217647 0.659093
0.617274 0.231239 0.65892
0.620481 0.244528 0.659148
0.622465 0.257456 0.659731
0.623344 0.269962 0.660621
0.623235 0.281988 0.661772
0.599428 0.20373 0.663762
0.605284 0.217145 0.663001
0.609713 0.230329 0.662687
0.612834 0.243231 0.66277
0.614764 0.255795 0.6632
0.615622 0.267969 0.663927
0.615528 0.279699 0.6649
0.592793 0.204008 0.667552
0.598486 0.217039 0.666694
0.602783 0.229853 0.666288
0.605804 0.242401 0.66628
0.60767 0.254632 0.666616
0.6085 0.266497 0.66724
0.608413 0.277945 0.668098
0.586742 0.204581 0.670995
0.592258 0.217261 0.670073
0.596413 0.229735 0.669612
0.599329 0.241957 0.669554
0.601124 0.253878 0.669838
0.601919 0.265451 0.670406
0.601834 0.276627 0.671196
0.58119 0.205387 0.674001
0.586524 0.21774 0.673038
0.590534 0.229898 0.672548
0.593341 0.241815 0.672466
0.595064 0.253443 0.672727
0.595822 0.264736 0.673268
0.595735 0.275647 0.674024
0.576052 0.206359 0.676478
0.581208 0.218408 0.67549
0.585077 0.230267 0.674983
0.587778 0.241892 0.674891
0.589429 0.253237 0.675143
0.59015 0.264257 0.675673
0.590058 0.274906 0.67641
-0.590058 0.274906 0.67641
-0.595735 0.275647 0.674024
-0.601834 0.276627 0.671196
-0.608413 0.277945 0.668098
-0.615528 0.279699 0.6649
-0.623235 0.281988 0.661772
-0.63159 0.28491 0.658886
-0.59015 0.264257 0.675673
-0.595822 0.264736 0.673268
-0.601919 0.265451 0.670406
-0.6085 0.266497 0.66724
-0.615622 0.267969 0.663927
-0.623344 0.269962 0.660621
-0.631723 0.272572 0.657479
-0.589429 0.253237 0.675143
-0.595064 0.253443 0.672727
-0.601124 0.253878 0.669838
-0.60767 0.254632 0.666616
-0.614764 0.255795 0.6632
-0.622465 0.257456 0.659731
-0.630834 0.259705 0.656349
-0.587778 0.241892 0.674891
-0.593341 0.241815 0.672466
-0.599329 0.241957 0.669554
-0.605804 0.242401 0.66628
-0.612834 0.243231 0.66277
-0.62048 0.244529 0.659148
-0.628809 0.246377 0.655541
-0.585077 0.230267 0.674984
-0.590534 0.229898 0.672548
-0.596413 0.229735 0.669612
-0.602783 0.229853 0.666288
-0.609713 0.230329 0.662687
-0.617274 0.231239 0.65892
-0.625535 0.232658 0.6551
-0.581208 0.218408 0.67549
-0.586524 0.21774 0.673038
-0.592258 0.217261 0.670073
-0.598486 0.217039 0.666694
-0.605284 0.217145 0.663001
-0.61273 0.217647 0.659093
-0.620898 0.218616 0.655071
-0.576052 0.206359 0.676478
-0.58119 0.205387 0.674001
-0.586742 0.204581 0.670995
-0.592793 0.204008 0.667552
-0.599428 0.20373 0.663762
-0.60673 0.203812 0.659715
-0.614784 0.204318 0.655501
0.628664 0.307752 0.662368
0.625819 0.318263 0.664456
0.621846 0.328262 0.666849
0.616578 0.337825 0.669604
0.609849 0.347029 0.672782
0.601493 0.35595 0.67644
0.591344 0.364665 0.680638
0.62047 0.30438 0.664688
0.617768 0.314747 0.666475
0.613982 0.324634 0.668568
0.608951 0.334099 0.671036
0.602509 0.343204 0.673949
0.594492 0.352006 0.677376
0.584738 0.360566 0.681386
0.612909 0.301631 0.667405
0.610341 0.311827 0.668967
0.606733 0.321566 0.670835
0.601923 0.330897 0.673087
0.59575 0.339866 0.675804
0.58805 0.34852 0.679065
0.578663 0.356908 0.682949
0.605924 0.299407 0.670321
0.60348 0.309411 0.671721
0.600038 0.318976 0.673424
0.595435 0.328142 0.67552
0.589512 0.336948 0.678098
0.582106 0.345434 0.681247
0.573056 0.353638 0.685056
0.59946 0.297612 0.673236
0.59713 0.307407 0.674524
0.593839 0.316779 0.676112
0.589427 0.32576 0.6781
0.583733 0.334385 0.680584
0.576596 0.342689 0.683663
0.567858 0.350706 0.687436
0.59346 0.29615 0.675951
0.591231 0.305726 0.677164
0.588077 0.314891 0.678675
0.583837 0.323675 0.680589
0.578353 0.33211 0.683013
0.571462 0.340228 0.686053
0.563007 0.34806 0.689815
0.587867 0.294923 0.678266
0.585727 0.304276 0.679428
0.582693 0.313229 0.680886
0.578607 0.321812 0.682752
0.57331 0.330056 0.685139
0.566642 0.337992 0.688158
0.558444 0.345651 0.691922
-0.558444 0.345651 0.691922
-0.563007 0.34806 0.689815
-0.567858 0.350706 0.687436
-0.573056 0.353638 0.685056
-0.578663 0.356908 0.682949
-0.584738 0.360566 0.681386
-0.591344 0.364665 0.680638
-0.566642 0.337992 0.688158
-0.571462 0.340228 0.686053
-0.576597 0.342689 0.683663
-0.582105 0.345434 0.681247
-0.58805 0.34852 0.679065
-0.594492 0.352006 0.677376
-0.601493 0.35595 0.67644
-0.57331 0.330056 0.685139
-0.578353 0.33211 0.683013
-0.583733 0.334385 0.680584
-0.589512 0.336948 0.678098
-0.59575 0.339866 0.675804
-0.602509 0.343204 0.673949
-0.609849 0.347029 0.672782
-0.578607 0.321812 0.682752
-0.583837 0.323675 0.680589
-0.589427 0.32576 0.6781
-0.595435 0.328142 0.67552
-0.601923 0.330897 0.673087
-0.608951 0.334099 0.671036
-0.616578 0.337825 0.669604
-0.582693 0.313229 0.680886
-0.588077 0.314891 0.678674
-0.593839 0.316779 0.676112
-0.600038 0.318976 0.673424
-0.606733 0.321566 0.670835
-0.613982 0.324634 0.668568
-0.621846 0.328262 0.666849
-0.585727 0.304276 0.679428
-0.591231 0.305726 0.677164
-0.59713 0.307407 0.674524
-0.603481 0.309411 0.671721
-0.610341 0.311827 0.668967
-0.617768 0.314747 0.666475
-0.625819 0.318263 0.664456
-0.587867 0.294923 0.678266
-0.59346 0.29615 0.675951
-0.59946 0.297612 0.673236
-0.605924 0.299407 0.670321
-0.612909 0.301631 0.667405
-0.62047 0.30438 0.664688
-0.628664 0.307752 0.662368
0.565094 0.381762 0.690851
0.549235 0.390182 0.696752
0.532066 0.398471 0.702967
0.513993 0.40659 0.709323
0.495426 0.414501 0.715649
0.476771 0.422163 0.721772
0.458437 0.429538 0.72752
0.559455 0.377184 0.691391
0.544154 0.385272 0.697265
0.527575 0.393182 0.703481
0.510111 0.400884 0.70985
0.492153 0.408353 0.716181
0.474097 0.415559 0.722285
0.456335 0.422475 0.727971
0.554265 0.37306 0.692861
0.539473 0.380852 0.698759
0.52343 0.388433 0.705024
0.506517 0.395782 0.711447
0.489113 0.40288 0.717821
0.471599 0.409707 0.723937
0.454356 0.416244 0.729587
0.54947 0.369348 0.694962
0.535142 0.37688 0.700921
0.519587 0.384179 0.707268
0.503174 0.391232 0.713776
0.486273 0.398024 0.720219
0.469253 0.404541 0.726371
0.452483 0.410769 0.732006
0.545015 0.366005 0.697396
0.53111 0.373311 0.70344
0.516 0.380374 0.709888
0.500045 0.387185 0.716497
0.483603 0.393729 0.723025
0.467034 0.399998 0.729228
0.450697 0.405979 0.734864
0.540845 0.362987 0.699865
0.527328 0.370102 0.706003
0.512627 0.376973 0.712558
0.497092 0.383589 0.719273
0.481072 0.389939 0.72589
0.464918 0.396012 0.732152
0.448981 0.401797 0.7378
0.536905 0.36025 0.70207
0.523746 0.36721 0.708296
0.509423 0.373928 0.714951
0.494277 0.380394 0.721764
0.478649 0.386595 0.728466
0.462882 0.392518 0.734785
0.447316 0.398152 0.740451
-0.447316 0.398152 0.740451
-0.448981 0.401797 0.7378
-0.450697 0.405979 0.734864
-0.452483 0.410769 0.732006
-0.454356 0.416244 0.729587
-0.456335 0.422475 0.727971
-0.458437 0.429538 0.72752
-0.462882 0.392518 0.734784
-0.464918 0.396012 0.732152
-0.467034 0.399998 0.729228
-0.469253 0.404541 0.726371
-0.471599 0.409707 0.723937
-0.474097 0.415559 0.722285
-0.476771 0.422163 0.721772
-0.478649 0.386595 0.728465
-0.481072 0.389939 0.72589
-0.483603 0.393729 0.723025
-0.486273 0.398024 0.720219
-0.489113 0.40288 0.717821
-0.492153 0.408353 0.716182
-0.495426 0.414501 0.715649
-0.494277 0.380394 0.721764
-0.497092 0.383589 0.719273
-0.500045 0.387184 0.716497
-0.503174 0.391232 0.713776
-0.506517 0.395782 0.711447
-0.510111 0.400884 0.70985
-0.513993 0.40659 0.709323
-0.509423 0.373928 0.714951
-0.512627 0.376973 0.712558
-0.516 0.380374 0.709888
-0.519587 0.384179 0.707268
-0.52343 0.388433 0.705024
-0.527575 0.393182 0.703481
-0.532066 0.398471 0.702967
-0.523746 0.367209 0.708296
-0.527328 0.370102 0.706003
-0.53111 0.373311 0.70344
-0.535142 0.37688 0.700921
-0.539473 0.380852 0.698759
-0.544155 0.385272 0.697265
-0.549235 0.390182 0.696752
-0.536905 0.36025 0.70207
-0.540845 0.362987 0.699865
-0.545015 0.366005 0.697397
-0.54947 0.369348 0.694962
-0.554265 0.37306 0.692861
-0.559455 0.377184 0.691391
-0.565094 0.381762 0.690851
0.424277 0.443269 0.737246
0.408762 0.449528 0.741142
0.394187 0.455307 0.744498
0.380454 0.460549 0.747402
0.367466 0.465195 0.749944
0.355124 0.469187 0.752213
0.34333 0.472469 0.754299
0.423185 0.435322 0.737379
0.4081 0.441173 0.741018
0.393915 0.446571 0.744072
0.380539 0.451464 0.746649
0.367882 0.4558 0.748853
0.355854 0.459525 0.750792
0.344365 0.462585 0.752572
0.422128 0.428363 0.738712
0.407439 0.433876 0.742103
0.393615 0.43896 0.74486
0.380571 0.443566 0.747109
0.368223 0.447645 0.748974
0.356488 0.451147 0.750579
0.345282 0.454023 0.75205
0.421099 0.422295 0.740883
0.406775 0.427532 0.744041
0.393284 0.432358 0.746516
0.380547 0.436727 0.74845
0.368488 0.440592 0.749987
0.357026 0.443908 0.751268
0.346085 0.446627 0.752436
0.420088 0.417025 0.743532
0.406101 0.422035 0.74648
0.392919 0.426648 0.748696
0.380468 0.430818 0.75034
0.368676 0.434504 0.751571
0.357469 0.43766 0.75255
0.346773 0.440244 0.753437
0.419088 0.412457 0.746298
0.405413 0.41728 0.749066
0.392517 0.421712 0.751056
0.380332 0.425713 0.752444
0.368788 0.429241 0.753407
0.357817 0.432257 0.754118
0.34735 0.43472 0.754755
0.418089 0.408497 0.748822
0.404705 0.41316 0.751445
0.392076 0.417434 0.753251
0.380137 0.421282 0.754431
0.368825 0.424667 0.755173
0.358073 0.427552 0.755665
0.347817 0.429899 0.756097
-0.347817 0.429899 0.756097
-0.34735 0.43472 0.754755
-0.346773 0.440244 0.753437
-0.346085 0.446627 0.752436
-0.345282 0.454023 0.75205
-0.344365 0.462585 0.752572
-0.34333 0.472469 0.754299
-0.358073 0.427552 0.755665
-0.357817 0.432257 0.754118
-0.357469 0.43766 0.75255
-0.357026 0.443908 0.751268
-0.356488 0.451147 0.750579
-0.355854 0.459525 0.750792
-0.355124 0.469187 0.752213
-0.368825 0.424667 0.755173
-0.368789 0.429241 0.753407
-0.368676 0.434504 0.751571
-0.368488 0.440592 0.749987
-0.368223 0.447645 0.748974
-0.367882 0.4558 0.748853
-0.367466 0.465195 0.749944
-0.380137 0.421282 0.754431
-0.380332 0.425713 0.752445
-0.380468 0.430818 0.75034
-0.380547 0.436727 0.74845
-0.380571 0.443566 0.747109
-0.380539 0.451464 0.746649
-0.380454 0.460549 0.747402
-0.392076 0.417434 0.753251
-0.392517 0.421712 0.751056
-0.392919 0.426648 0.748696
-0.393284 0.432358 0.746516
-0.393615 0.43896 0.74486
-0.393915 0.446571 0.744073
-0.394187 0.455307 0.744498
-0.404705 0.41316 0.751444
-0.405413 0.41728 0.749066
-0.406101 0.422035 0.74648
-0.406775 0.427532 0.744041
-0.407439 0.433876 0.742103
-0.4081 0.441173 0.741018
-0.408762 0.449528 0.741142
-0.418089 0.408497 0.748822
-0.419088 0.412457 0.746298
-0.420088 0.417025 0.743532
-0.421099 0.422295 0.740883
-0.422128 0.428363 0.738712
-0.423185 0.435322 0.737379
-0.424277 0.443269 0.737246
0.321005 0.476678 0.75826
0.310323 0.477537 0.760217
0.299888 0.477549 0.762152
0.289649 0.476704 0.764058
0.279554 0.474993 0.765926
0.26955 0.472404 0.767749
0.259584 0.468927 0.769518
0.322645 0.466509 0.756061
0.312272 0.467314 0.757862
0.302151 0.467335 0.759687
0.292229 0.466566 0.761521
0.282452 0.465001 0.763349
0.272769 0.462634 0.765158
0.263125 0.459457 0.76693
0.324127 0.457704 0.755059
0.314041 0.458457 0.7567
0.304211 0.458477 0.758411
0.294583 0.457759 0.760167
0.285105 0.456301 0.761948
0.275725 0.454099 0.763729
0.266388 0.451148 0.765489
0.325453 0.450098 0.754978
0.315633 0.450801 0.756463
0.306073 0.45081 0.758059
0.296719 0.450124 0.759735
0.287521 0.44874 0.761461
0.278425 0.446655 0.763206
0.269381 0.443868 0.764939
0.326628 0.443527 0.75554
0.317054 0.444181 0.756878
0.307743 0.444173 0.758365
0.298644 0.4435 0.759963
0.289707 0.442162 0.761632
0.28088 0.440157 0.763332
0.272112 0.437484 0.765026
0.327654 0.437828 0.75647
0.318307 0.438432 0.757677
0.309227 0.438398 0.759066
0.300365 0.437726 0.760589
0.291671 0.436414 0.7622
0.283095 0.43446 0.763852
0.274589 0.431863 0.765496
0.328536 0.432836 0.757492
0.319399 0.433388 0.75859
0.310532 0.433324 0.759894
0.301889 0.432642 0.761352
0.293421 0.431341 0.762908
0.285081 0.429419 0.764507
0.276821 0.426874 0.766095
-0.276821 0.426874 0.766095
-0.274589 0.431863 0.765496
-0.272112 0.437484 0.765026
-0.269381 0.443868 0.764939
-0.266388 0.451148 0.765489
-0.263125 0.459457 0.766931
-0.259584 0.468927 0.769518
-0.285081 0.429419 0.764507
-0.283095 0.43446 0.763852
-0.28088 0.440157 0.763333
-0.278425 0.446655 0.763206
-0.275725 0.454099 0.763729
-0.272769 0.462634 0.765158
-0.26955 0.472404 0.767749
-0.293421 0.431341 0.762908
-0.291671 0.436414 0.7622
-0.289707 0.442162 0.761632
-0.287521 0.44874 0.761461
-0.285105 0.456301 0.761948
-0.282452 0.465001 0.76335
-0.279554 0.474993 0.765926
-0.301889 0.432642 0.761352
-0.300365 0.437726 0.760589
-0.298644 0.4435 0.759963
-0.296719 0.450124 0.759735
-0.294583 0.457759 0.760167
-0.292229 0.466566 0.761521
-0.289649 0.476704 0.764058
-0.310532 0.433324 0.759895
-0.309227 0.438398 0.759066
-0.307743 0.444173 0.758365
-0.306073 0.450811 0.758059
-0.304211 0.458477 0.758411
-0.302151 0.467335 0.759687
-0.299888 0.477549 0.762152
-0.319399 0.433388 0.758589
-0.318307 0.438432 0.757677
-0.317054 0.444181 0.756878
-0.315633 0.450801 0.756463
-0.314041 0.458457 0.7567
-0.312272 0.467314 0.757862
-0.310323 0.477537 0.760217
-0.328536 0.432836 0.757492
-0.327654 0.437828 0.75647
-0.326628 0.443527 0.75554
-0.325453 0.450098 0.754978
-0.324127 0.457704 0.755059
-0.322645 0.466509 0.756061
-0.321005 0.476678 0.75826
0.239582 0.459281 0.77286
0.229575 0.453155 0.774396
0.219668 0.446227 0.775806
0.209941 0.438551 0.777062
0.200478 0.430181 0.778136
0.191361 0.421168 0.779
0.182672 0.411568 0.779624
0.243769 0.450657 0.770308
0.234088 0.44506 0.771872
0.224507 0.438708 0.773317
0.215112 0.431632 0.774616
0.205984 0.423867 0.775743
0.197209 0.415445 0.776671
0.188869 0.406399 0.777373
0.247659 0.442989 0.768854
0.238297 0.437797 0.770412
0.229039 0.431887 0.771855
0.219967 0.42528 0.773159
0.211164 0.417995 0.774299
0.202714 0.410051 0.775253
0.194698 0.401468 0.775995
0.251258 0.436179 0.768247
0.242208 0.431286 0.76977
0.233264 0.42571 0.77118
0.224508 0.419461 0.772454
0.216018 0.41255 0.773574
0.207876 0.40499 0.774518
0.20016 0.396792 0.775266
0.254572 0.430128 0.768239
0.245825 0.425452 0.769703
0.237188 0.42012 0.771051
0.228736 0.41414 0.772266
0.220546 0.407519 0.773333
0.212694 0.400266 0.774237
0.205256 0.392388 0.774961
0.257607 0.424738 0.768582
0.249153 0.420216 0.769965
0.240811 0.415062 0.771227
0.232652 0.409283 0.772358
0.224748 0.402887 0.773346
0.217169 0.395881 0.774183
0.209986 0.388272 0.774857
0.26037 0.419912 0.769027
0.252197 0.4155 0.770312
0.244138 0.410479 0.771468
0.236259 0.404856 0.772492
0.228625 0.39864 0.77338
0.2213 0.391839 0.774127
0.214351 0.384461 0.774729
-0.214351 0.384461 0.774729
-0.209986 0.388272 0.774858
-0.205256 0.392388 0.774961
-0.20016 0.396792 0.775266
-0.194698 0.401468 0.775995
-0.188869 0.406399 0.777373
-0.182672 0.411568 0.779624
-0.2213 0.391839 0.774127
-0.217169 0.395881 0.774183
-0.212694 0.400266 0.774237
-0.207876 0.40499 0.774518
-0.202714 0.410051 0.775253
-0.197209 0.415445 0.776671
-0.191361 0.421168 0.779
-0.228625 0.39864 0.77338
-0.224748 0.402887 0.773346
-0.220546 0.407519 0.773333
-0.216018 0.41255 0.773574
-0.211164 0.417995 0.7743
-0.205984 0.423867 0.775743
-0.200478 0.430181 0.778136
-0.236259 0.404856 0.772492
-0.232652 0.409283 0.772358
-0.228736 0.41414 0.772266
-0.224508 0.419461 0.772454
-0.219967 0.42528 0.773159
-0.215112 0.431632 0.774616
-0.209941 0.438551 0.777062
-0.244138 0.410479 0.771468
-0.240811 0.415062 0.771227
-0.237188 0.42012 0.771051
-0.233264 0.42571 0.77118
-0.229039 0.431887 0.771855
-0.224507 0.438708 0.773317
-0.219668 0.446227 0.775806
-0.252197 0.4155 0.770312
-0.249153 0.420216 0.769965
-0.245825 0.425452 0.769703
-0.242208 0.431286 0.76977
-0.238297 0.437797 0.770412
-0.234088 0.44506 0.771872
-0.229575 0.453155 0.774396
-0.260371 0.419912 0.769026
-0.257607 0.424738 0.768582
-0.254572 0.430128 0.768239
-0.251258 0.436179 0.768247
-0.247659 0.442989 0.768854
-0.243769 0.450657 0.770308
-0.239582 0.459281 0.77286
0.26511 0.411562 0.769278
0.257455 0.407326 0.770328
0.249918 0.402519 0.77123
0.242552 0.397153 0.771994
0.235408 0.391238 0.772629
0.228538 0.384788 0.773145
0.221993 0.377814 0.77355
0.267125 0.407895 0.768885
0.259708 0.403745 0.769803
0.252411 0.399041 0.770562
0.245279 0.393796 0.771178
0.238356 0.388024 0.771668
0.231686 0.381738 0.772048
0.225316 0.374951 0.772334
0.268946 0.404503 0.768196
0.261755 0.400437 0.768974
0.254686 0.395835 0.769581
0.247775 0.390711 0.77004
0.241059 0.385078 0.770374
0.234577 0.378951 0.770607
0.228366 0.372343 0.770762
0.270604 0.401339 0.76726
0.263631 0.397358 0.767892
0.256779 0.392858 0.76834
0.250078 0.387851 0.768633
0.243559 0.382354 0.768803
0.237253 0.376381 0.76888
0.231188 0.369946 0.768896
0.272133 0.398359 0.766126
0.265369 0.394462 0.766608
0.258726 0.390062 0.76689
0.252228 0.385172 0.767011
0.245897 0.379809 0.767009
0.239756 0.373986 0.766924
0.233828 0.367719 0.766792
0.273565 0.395515 0.764845
0.267003 0.391703 0.765171
0.260564 0.387403 0.765283
0.254262 0.382629 0.765228
0.248112 0.377397 0.76505
0.24213 0.371722 0.764796
0.236331 0.365619 0.764511
0.274931 0.392764 0.763464
0.268569 0.389036 0.763633
0.262329 0.384834 0.763573
0.256219 0.380175 0.763337
0.250246 0.375074 0.76298
0.244418 0.369545 0.762554
0.238743 0.363604 0.762112
-0.238743 0.363604 0.762112
-0.236331 0.365619 0.764511
-0.233828 0.367719 0.766792
-0.231188 0.369946 0.768895
-0.228366 0.372343 0.770762
-0.225316 0.374951 0.772334
-0.221993 0.377814 0.77355
-0.244418 0.369545 0.762554
-0.24213 0.371722 0.764796
-0.239756 0.373986 0.766924
-0.237253 0.376381 0.76888
-0.234577 0.378951 0.770607
-0.231686 0.381738 0.772048
-0.228538 0.384788 0.773145
-0.250246 0.375074 0.76298
-0.248112 0.377397 0.76505
-0.245897 0.379809 0.76701
-0.243559 0.382354 0.768803
-0.241059 0.385078 0.770374
-0.238356 0.388024 0.771668
-0.235408 0.391238 0.772629
-0.256219 0.380175 0.763337
-0.254262 0.382629 0.765228
-0.252228 0.385172 0.767011
-0.250078 0.387851 0.768633
-0.247775 0.390711 0.77004
-0.245279 0.393796 0.771178
-0.242552 0.397152 0.771994
-0.262329 0.384834 0.763573
-0.260564 0.387402 0.765283
-0.258726 0.390062 0.76689
-0.256779 0.392858 0.76834
-0.254686 0.395835 0.769581
-0.252411 0.399041 0.770562
-0.249918 0.402519 0.77123
-0.268569 0.389036 0.763633
-0.267003 0.391703 0.765171
-0.265369 0.394462 0.766608
-0.263631 0.397358 0.767892
-0.261755 0.400437 0.768974
-0.259708 0.403745 0.769803
-0.257455 0.407326 0.770328
-0.274931 0.392764 0.763464
-0.273565 0.395516 0.764845
-0.272133 0.398359 0.766126
-0.270604 0.401339 0.76726
-0.268946 0.404503 0.768196
-0.267125 0.407895 0.768885
-0.26511 0.411562 0.769278
0.329883 0.42434 0.758758
0.321117 0.424774 0.759728
0.312629 0.424636 0.760929
0.304376 0.42392 0.762293
0.296314 0.422624 0.763756
0.288398 0.420743 0.76525
0.280586 0.418275 0.766711
0.330369 0.420623 0.758784
0.321767 0.420993 0.759738
0.313448 0.420812 0.760919
0.305369 0.420076 0.762258
0.297489 0.418779 0.763684
0.289764 0.416917 0.765129
0.282155 0.414486 0.766521
0.330751 0.417192 0.758464
0.322303 0.417493 0.759428
0.314141 0.417267 0.760608
0.306225 0.416508 0.761933
0.298515 0.41521 0.763329
0.290971 0.413367 0.764725
0.283552 0.410971 0.766047
0.331048 0.413998 0.757856
0.322744 0.414227 0.758851
0.314729 0.413953 0.760046
0.306966 0.413171 0.761366
0.299417 0.411871 0.762737
0.292043 0.410045 0.764085
0.284807 0.407686 0.765334
0.331277 0.410994 0.757016
0.323108 0.411148 0.758061
0.315233 0.410826 0.759283
0.307616 0.410018 0.760606
0.30022 0.408715 0.761956
0.293009 0.406906 0.763256
0.285947 0.404583 0.764432
0.331453 0.408132 0.756004
0.323415 0.40821 0.757111
0.315674 0.407837 0.758369
0.308197 0.407003 0.759701
0.300948 0.405696 0.761033
0.293894 0.403905 0.762287
0.287001 0.401618 0.763387
0.331596 0.405366 0.754876
0.323684 0.405365 0.756054
0.316074 0.404941 0.757354
0.308732 0.404081 0.7587
0.301628 0.40277 0.760015
0.294727 0.400996 0.761223
0.287998 0.398745 0.762247
-0.287998 0.398745 0.762247
-0.287001 0.401618 0.763387
-0.285947 0.404583 0.764432
-0.284807 0.407686 0.765334
-0.283552 0.410971 0.766047
-0.282155 0.414486 0.766521
-0.280586 0.418275 0.766711
-0.294727 0.400996 0.761223
-0.293894 0.403905 0.762287
-0.293009 0.406906 0.763256
-0.292043 0.410045 0.764085
-0.290971 0.413367 0.764725
-0.289764 0.416917 0.765129
-0.288398 0.420743 0.76525
-0.301628 0.40277 0.760015
-0.300949 0.405696 0.761033
-0.30022 0.408715 0.761956
-0.299417 0.411871 0.762737
-0.298515 0.41521 0.763329
-0.297489 0.418779 0.763684
-0.296314 0.422624 0.763756
-0.308732 0.404081 0.7587
-0.308197 0.407003 0.759701
-0.307616 0.410018 0.760606
-0.306966 0.413171 0.761366
-0.306225 0.416508 0.761933
-0.305369 0.420076 0.762258
-0.304376 0.42392 0.762293
-0.316074 0.404941 0.757354
-0.315674 0.407837 0.758369
-0.315233 0.410826 0.759283
-0.314729 0.413953 0.760046
-0.314141 0.417267 0.760608
-0.313448 0.420812 0.760919
-0.312629 0.424636 0.760929
-0.323684 0.405365 0.756054
-0.323415 0.40821 0.757111
-0.323108 0.411148 0.758061
-0.322744 0.414227 0.758851
-0.322303 0.417493 0.759428
-0.321767 0.420993 0.759738
-0.321117 0.424775 0.759728
-0.331596 0.405366 0.754876
-0.331453 0.408132 0.756004
-0.331277 0.410994 0.757016
-0.331048 0.413998 0.757856
-0.330751 0.417192 0.758464
-0.330369 0.420623 0.758784
-0.329883 0.42434 0.758758
0.416065 0.40203 0.751778
0.403209 0.406412 0.754243
0.391063 0.410394 0.755847
0.379569 0.413948 0.756793
0.36867 0.417047 0.757286
0.358309 0.419663 0.75753
0.348428 0.421768 0.757728
0.415033 0.399376 0.75197
0.40242 0.403625 0.754423
0.390494 0.407462 0.756009
0.379201 0.410865 0.756933
0.368488 0.413812 0.757401
0.358302 0.416283 0.757619
0.348588 0.418255 0.757793
0.413989 0.397035 0.751439
0.401608 0.401156 0.753917
0.389891 0.404847 0.755531
0.378788 0.408096 0.756485
0.36825 0.410886 0.756983
0.358226 0.413205 0.757231
0.348668 0.415038 0.757432
0.412936 0.394956 0.750305
0.400777 0.398952 0.752839
0.389259 0.402498 0.75452
0.378337 0.405589 0.755547
0.367963 0.408218 0.756123
0.358093 0.41038 0.756445
0.348681 0.412068 0.756716
0.411875 0.393086 0.748689
0.399931 0.396959 0.751304
0.388605 0.40036 0.753082
0.377855 0.403292 0.754218
0.367639 0.405756 0.754907
0.357915 0.407757 0.755341
0.348641 0.409295 0.755716
0.410809 0.391373 0.746712
0.399073 0.395126 0.749425
0.387933 0.398382 0.751325
0.37735 0.401152 0.752596
0.367285 0.40345 0.753425
0.357702 0.405285 0.753999
0.34856 0.40667 0.754503
0.409738 0.389765 0.744493
0.398208 0.393398 0.747318
0.38725 0.396509 0.749354
0.37683 0.399118 0.750777
0.366913 0.401246 0.751766
0.357466 0.402914 0.752497
0.348453 0.404144 0.753148
