153.84999999999999 170.09200000000001 40.499899999999997
99.257800000000003 180.018 41.765599999999999
70.382800000000003 43.7637 44.929600000000001
90.685599999999994 180.018 60.117100000000001
139.41200000000001 170.54300000000001 30.375
129.93799999999999 196.71100000000001 60.117100000000001
159.715 158.36099999999999 40.499899999999997
120.012 50.982399999999998 110.10899999999999
55.042999999999999 130.38900000000001 60.117100000000001
70.382800000000003 163.32400000000001 90.492099999999994
67.224599999999995 80.308599999999998 40.499899999999997
160.166 73.540999999999997 40.499899999999997
111.43899999999999 180.018 40.499899999999997
73.992199999999997 40.154299999999999 80.367099999999994
115.04900000000001 175.506 40.499899999999997
100.16 175.05500000000001 40.499899999999997
122.268 120.012 20.25
129.93799999999999 193.102 50.624899999999997
105.574 150.24000000000001 20.25
121.36499999999999 60.005899999999997 40.499899999999997
60.005899999999997 134.44900000000001 40.499899999999997
99.257800000000003 30.6797 40.499899999999997
90.234399999999994 184.078 70.242099999999994
66.773499999999999 132.64500000000001 13.289
158.36099999999999 160.166 40.499899999999997
130.38900000000001 36.093800000000002 90.492099999999994
70.834000000000003 160.166 40.499899999999997
99.257800000000003 67.224599999999995 120.23399999999999
100.16 30.2285 40.499899999999997
142.119 60.005899999999997 40.499899999999997
56.396500000000003 140.31399999999999 80.367099999999994
120.012 23.912099999999999 60.117100000000001
62.712899999999998 150.24000000000001 40.499899999999997
160.166 140.31399999999999 17.718699999999998
167.83600000000001 131.74199999999999 20.25
83.466800000000006 30.2285 70.242099999999994
150.24000000000001 114.14700000000001 20.25
167.38499999999999 130.38900000000001 40.499899999999997
166.934 150.24000000000001 50.624899999999997
92.490300000000005 120.46299999999999 40.499899999999997
140.31399999999999 60.457000000000001 110.10899999999999
90.685599999999994 180.018 100.617
110.086 28.4238 40.499899999999997
160.166 160.166 36.070300000000003
60.457000000000001 140.31399999999999 60.117100000000001
149.78899999999999 130.38900000000001 126.562
175.506 130.38900000000001 60.117100000000001
110.086 24.363299999999999 70.242099999999994
59.554699999999997 109.63500000000001 40.499899999999997
112.342 30.2285 60.117100000000001
159.715 159.715 110.742
121.816 170.09200000000001 29.109300000000001
99.709000000000003 43.3125 42.398400000000002
62.261699999999998 90.234399999999994 40.499899999999997
70.382800000000003 64.968800000000002 30.375
91.136700000000005 50.080100000000002 50.624899999999997
170.09200000000001 84.369200000000006 50.624899999999997
130.38900000000001 190.39500000000001 46.828099999999999
139.863 164.678 120.23399999999999
121.36499999999999 68.126999999999995 36.703099999999999
140.31399999999999 28.875 70.242099999999994
84.820300000000003 130.38900000000001 20.25
59.554699999999997 86.173900000000003 90.492099999999994
165.58000000000001 90.234399999999994 40.499899999999997
81.210999999999999 120.012 30.375
110.086 81.210999999999999 40.499899999999997
86.625 60.908200000000001 21.515599999999999
168.738 80.308599999999998 80.367099999999994
79.406300000000002 38.349600000000002 45.562399999999997
164.678 70.382800000000003 70.242099999999994
46.921900000000001 86.173900000000003 71.5077
160.166 57.75 80.367099999999994
170.09200000000001 109.63500000000001 32.906199999999998
174.60400000000001 140.31399999999999 60.117100000000001
80.308599999999998 140.31399999999999 22.781199999999998
55.042999999999999 120.012 60.117100000000001
97.904300000000006 61.810600000000001 40.499899999999997
101.063 70.382800000000003 120.23399999999999
143.92400000000001 80.308599999999998 0
120.012 34.289099999999998 37.335900000000002
100.16 169.64099999999999 122.765
120.012 27.9727 80.367099999999994
119.56100000000001 50.982399999999998 40.499899999999997
151.59399999999999 40.154299999999999 40.499899999999997
143.02199999999999 40.154299999999999 40.499899999999997
69.931700000000006 170.09200000000001 80.367099999999994
130.38900000000001 31.1309 40.499899999999997
109.63500000000001 24.363299999999999 70.242099999999994
121.36499999999999 30.2285 40.499899999999997
161.971 170.09200000000001 80.367099999999994
70.382800000000003 64.517600000000002 40.499899999999997
79.857399999999998 107.379 20.8828
87.0762 78.955100000000002 10.125
108.732 60.005899999999997 36.703099999999999
159.26400000000001 106.928 30.375
58.6524 120.012 40.499899999999997
212.05099999999999 128.584 53.789000000000001
113.244 50.982399999999998 36.703099999999999
160.166 79.857399999999998 34.804600000000001
170.09200000000001 140.31399999999999 34.171799999999998
148.887 39.703099999999999 33.539000000000001
141.66800000000001 190.39500000000001 60.117100000000001
67.224599999999995 90.234399999999994 110.10899999999999
59.554699999999997 129.48599999999999 32.906199999999998
102.867 190.39500000000001 70.242099999999994
160.166 70.382800000000003 10.125
81.210999999999999 180.018 100.617
207.08799999999999 170.09200000000001 139.851
149.78899999999999 161.52000000000001 30.375
63.164099999999998 70.382800000000003 60.117100000000001
160.166 85.722700000000003 110.10899999999999
86.173900000000003 77.150400000000005 40.499899999999997
106.02500000000001 77.601600000000005 31.0078
151.59399999999999 90.234399999999994 120.23399999999999
138.059 69.931700000000006 31.0078
140.31399999999999 190.39500000000001 54.421799999999998
111.43899999999999 40.154299999999999 40.499899999999997
109.63500000000001 170.09200000000001 30.375
90.234399999999994 162.422 30.375
66.773499999999999 150.24000000000001 120.23399999999999
161.06800000000001 170.09200000000001 110.10899999999999
89.332099999999997 73.992199999999997 120.23399999999999
70.382800000000003 60.005899999999997 84.796800000000005
129.035 40.154299999999999 86.6952
111.43899999999999 190.39500000000001 80.367099999999994
129.035 90.234399999999994 124.664
90.234399999999994 170.09200000000001 120.23399999999999
60.005899999999997 127.23099999999999 50.624899999999997
88.880899999999997 29.7774 50.624899999999997
120.012 170.09200000000001 120.23399999999999
26.6191 174.15199999999999 140.48400000000001
150.24000000000001 70.382800000000003 110.10899999999999
90.234399999999994 159.715 125.93000000000001
69.931700000000006 45.117199999999997 80.367099999999994
208.441 164.678 135.422
76.248099999999994 140.31399999999999 130.35900000000001
110.086 102.867 130.35900000000001
19.400400000000001 155.203 125.297
93.843800000000002 140.31399999999999 20.25
60.908200000000001 150.24000000000001 110.10899999999999
83.015600000000006 40.154299999999999 90.492099999999994
120.012 119.56100000000001 140.48400000000001
80.308599999999998 120.012 124.664
129.93799999999999 159.715 124.664
139.863 110.086 127.828
110.086 91.136700000000005 126.562
150.24000000000001 150.24000000000001 130.35900000000001
110.086 100.16 129.09399999999999
120.012 150.691 20.25
128.584 184.98099999999999 90.492099999999994
161.06800000000001 110.086 120.23399999999999
129.93799999999999 179.566 103.148
129.93799999999999 149.78899999999999 129.726
115.5 119.10899999999999 140.48400000000001
98.806700000000006 90.234399999999994 130.35900000000001
132.19300000000001 140.31399999999999 140.48400000000001
54.591799999999999 130.38900000000001 80.367099999999994
104.672 100.16 130.35900000000001
100.16 189.041 70.242099999999994
90.685599999999994 110.086 126.562
139.41200000000001 140.31399999999999 130.35900000000001
62.712899999999998 100.16 30.375
96.550799999999995 160.166 130.35900000000001
130.38900000000001 88.429699999999997 130.35900000000001
111.43899999999999 50.080100000000002 100.617
113.69499999999999 170.09200000000001 130.35900000000001
138.96100000000001 188.13900000000001 70.242099999999994
160.166 130.38900000000001 120.23399999999999
139.863 175.05500000000001 110.10899999999999
170.994 110.086 110.10899999999999
100.16 100.16 127.828
100.16 170.54300000000001 130.35900000000001
139.863 130.38900000000001 130.35900000000001
63.164099999999998 130.38900000000001 20.25
110.086 80.759799999999998 122.133
129.48599999999999 133.99799999999999 131.625
157.459 120.012 120.23399999999999
175.506 140.31399999999999 100.617
175.95699999999999 120.012 70.242099999999994
142.119 60.005899999999997 20.25
60.005899999999997 110.086 95.554599999999994
136.25399999999999 180.018 100.617
139.863 100.16 125.297
98.355500000000006 140.31399999999999 140.48400000000001
143.02199999999999 120.012 20.25
97.001999999999995 75.345699999999994 40.499899999999997
80.308599999999998 100.16 119.601
150.24000000000001 170.09200000000001 110.10899999999999
130.38900000000001 160.166 22.781199999999998
61.359400000000001 100.16 0
72.6387 40.154299999999999 60.117100000000001
160.166 54.591799999999999 70.242099999999994
161.52000000000001 140.31399999999999 120.23399999999999
210.24600000000001 110.086 144.28100000000001
149.78899999999999 100.16 119.601
59.554699999999997 150.24000000000001 70.242099999999994
135.352 150.24000000000001 130.35900000000001
129.035 100.16 128.46100000000001
89.332099999999997 57.2988 110.10899999999999
55.042999999999999 130.38900000000001 70.242099999999994
60.005899999999997 120.012 102.515
174.60400000000001 150.24000000000001 90.492099999999994
159.26400000000001 140.31399999999999 120.23399999999999
135.352 180.018 40.499899999999997
139.863 80.759799999999998 120.23399999999999
113.244 83.015600000000006 130.35900000000001
67.224599999999995 59.554699999999997 8.2265499999999996
90.234399999999994 181.822 90.492099999999994
129.035 70.382800000000003 113.90600000000001
100.611 130.38900000000001 140.48400000000001
110.086 40.154299999999999 86.062399999999997
150.24000000000001 37.447299999999998 70.242099999999994
160.166 107.83 120.23399999999999
80.308599999999998 168.28700000000001 110.10899999999999
207.53899999999999 170.09200000000001 140.48400000000001
71.7363 90.234399999999994 110.10899999999999
119.56100000000001 177.762 110.10899999999999
77.601600000000005 130.38900000000001 130.35900000000001
110.086 41.056699999999999 100.617
172.79900000000001 150.24000000000001 70.242099999999994
100.16 158.36099999999999 130.35900000000001
137.15600000000001 50.080100000000002 100.617
150.24000000000001 113.69499999999999 130.35900000000001
109.63500000000001 113.244 20.25
157.91 170.09200000000001 60.117100000000001
100.16 90.234399999999994 125.93000000000001
129.48599999999999 189.94300000000001 77.203000000000003
149.33799999999999 40.154299999999999 60.117100000000001
134.90000000000001 110.086 130.35900000000001
92.490300000000005 120.012 130.35900000000001
151.143 180.018 90.492099999999994
53.689500000000002 110.086 70.242099999999994
144.82599999999999 180.018 110.10899999999999
180.018 130.38900000000001 90.492099999999994
119.56100000000001 134.44900000000001 133.523
90.234399999999994 130.38900000000001 131.625
100.611 80.308599999999998 120.23399999999999
149.78899999999999 169.64099999999999 110.742
140.31399999999999 40.605499999999999 90.492099999999994
90.234399999999994 110.086 130.35900000000001
209.79499999999999 110.53700000000001 144.28100000000001
80.308599999999998 130.38900000000001 130.35900000000001
56.847700000000003 110.086 50.624899999999997
150.24000000000001 170.09200000000001 120.23399999999999
164.227 150.24000000000001 120.23399999999999
110.988 63.615299999999998 120.23399999999999
89.783199999999994 103.318 130.35900000000001
56.847700000000003 100.16 90.492099999999994
125.877 100.16 130.35900000000001
199.869 185.88300000000001 84.796800000000005
123.17 73.0899 30.375
107.83 41.056699999999999 100.617
180.46899999999999 130.38900000000001 100.617
160.166 70.382800000000003 6.9609300000000003
119.56100000000001 70.382800000000003 5.6953100000000001
96.099599999999995 190.39500000000001 90.492099999999994
149.78899999999999 157.459 120.23399999999999
81.662099999999995 120.012 130.35900000000001
99.257800000000003 60.908200000000001 110.10899999999999
151.143 100.16 120.23399999999999
83.918000000000006 80.308599999999998 120.23399999999999
60.005899999999997 80.308599999999998 80.367099999999994
93.843800000000002 70.382800000000003 120.23399999999999
90.234399999999994 179.566 100.617
169.64099999999999 158.36099999999999 80.367099999999994
88.880899999999997 150.24000000000001 24.046800000000001
139.41200000000001 40.154299999999999 43.031199999999998
59.103499999999997 100.16 100.617
130.38900000000001 68.126999999999995 120.23399999999999
115.04900000000001 40.154299999999999 30.375
71.285200000000003 40.154299999999999 70.242099999999994
120.012 64.066400000000002 120.23399999999999
120.012 60.005899999999997 110.10899999999999
59.554699999999997 110.086 10.125
149.33799999999999 170.54300000000001 110.10899999999999
80.308599999999998 159.715 119.601
90.685599999999994 100.16 125.297
111.43899999999999 60.005899999999997 109.476
133.547 30.2285 50.624899999999997
20.302700000000002 156.10599999999999 125.93000000000001
169.19 140.31399999999999 110.10899999999999
70.382800000000003 101.063 30.375
70.382800000000003 161.971 100.617
110.53700000000001 130.38900000000001 140.48400000000001
84.369200000000006 70.382800000000003 110.10899999999999
174.60400000000001 100.16 70.242099999999994
63.615299999999998 160.166 100.617
129.93799999999999 169.64099999999999 117.06999999999999
202.57599999999999 181.37100000000001 84.164000000000001
90.685599999999994 80.308599999999998 116.437
170.994 130.38900000000001 110.10899999999999
110.086 70.382800000000003 116.437
67.675799999999995 120.012 120.23399999999999
139.863 169.64099999999999 115.80500000000001
110.086 191.297 70.242099999999994
160.166 120.012 120.23399999999999
101.063 70.382800000000003 114.539
149.78899999999999 159.715 118.96899999999999
59.554699999999997 82.113299999999995 80.367099999999994
125.877 140.31399999999999 140.48400000000001
171.44499999999999 150.24000000000001 100.617
70.382800000000003 100.16 112.008
62.712899999999998 150.24000000000001 90.492099999999994
63.615299999999998 160.166 80.367099999999994
207.08799999999999 170.09200000000001 111.375
207.99000000000001 167.38499999999999 140.48400000000001
100.16 50.080100000000002 100.617
101.965 90.234399999999994 20.25
128.584 120.012 132.25800000000001
80.308599999999998 78.503900000000002 23.414000000000001
88.880899999999997 80.308599999999998 30.375
170.09200000000001 150.24000000000001 46.828099999999999
82.113299999999995 180.018 90.492099999999994
89.783199999999994 55.494199999999999 20.25
105.574 161.971 0
99.709000000000003 79.406300000000002 31.0078
149.78899999999999 150.24000000000001 130.35900000000001
124.523 160.166 130.35900000000001
130.38900000000001 180.018 110.10899999999999
180.018 140.31399999999999 90.492099999999994
157.00800000000001 80.308599999999998 110.10899999999999
60.005899999999997 139.863 87.328000000000003
169.64099999999999 100.16 95.554599999999994
151.59399999999999 50.080100000000002 80.367099999999994
60.005899999999997 90.234399999999994 80.367099999999994
179.11500000000001 130.38900000000001 80.367099999999994
129.48599999999999 166.482 120.23399999999999
107.379 29.7774 37.968699999999998
56.847700000000003 130.38900000000001 110.10899999999999
170.09200000000001 107.83 110.10899999999999
70.382800000000003 161.06800000000001 60.117100000000001
86.173900000000003 60.005899999999997 110.10899999999999
55.945300000000003 70.382800000000003 20.25
60.005899999999997 136.25399999999999 100.617
110.086 29.7774 37.968699999999998
140.31399999999999 106.928 30.375
141.66800000000001 70.382800000000003 110.10899999999999
150.24000000000001 180.018 49.359299999999998
172.34800000000001 150.24000000000001 110.10899999999999
150.691 160.166 26.578099999999999
149.78899999999999 50.080100000000002 79.734300000000005
161.971 100.16 10.125
63.615299999999998 90.234399999999994 10.125
146.631 130.38900000000001 12.023400000000001
101.965 130.38900000000001 134.78899999999999
171.89699999999999 150.24000000000001 50.624899999999997
94.294899999999998 40.154299999999999 20.25
90.685599999999994 180.018 110.10899999999999
93.392600000000002 66.322299999999998 22.148399999999999
64.066400000000002 60.005899999999997 50.624899999999997
129.48599999999999 188.13900000000001 80.367099999999994
130.38900000000001 44.2149 100.617
149.78899999999999 120.012 125.297
120.012 80.308599999999998 20.25
175.506 110.086 70.242099999999994
70.382800000000003 130.38900000000001 120.23399999999999
160.166 119.56100000000001 10.125
117.30500000000001 50.080100000000002 99.984300000000005
101.965 120.012 20.25
119.56100000000001 69.029300000000006 6.3281200000000002
160.166 66.773499999999999 5.6953100000000001
90.685599999999994 130.38900000000001 20.25
144.82599999999999 140.31399999999999 15.8203
123.621 131.291 140.48400000000001
161.06800000000001 60.005899999999997 70.242099999999994
61.359400000000001 80.308599999999998 90.492099999999994
139.863 190.39500000000001 80.367099999999994
80.759799999999998 70.382800000000003 105.047
147.53299999999999 114.14700000000001 10.125
140.76599999999999 100.16 130.35900000000001
81.210999999999999 160.166 120.23399999999999
88.880899999999997 81.210999999999999 20.25
159.715 148.887 117.703
74.894599999999997 100.16 120.23399999999999
57.2988 110.086 20.25
150.24000000000001 78.955100000000002 0
66.322299999999998 85.722700000000003 0
150.24000000000001 36.996099999999998 60.117100000000001
119.56100000000001 80.759799999999998 15.8203
90.234399999999994 40.154299999999999 86.062399999999997
140.31399999999999 75.345699999999994 120.23399999999999
88.880899999999997 123.621 20.25
207.53899999999999 169.19 111.375
91.136700000000005 130.38900000000001 0
67.675799999999995 150.24000000000001 30.375
108.28100000000001 71.7363 20.25
170.994 140.31399999999999 50.624899999999997
168.738 120.012 110.10899999999999
76.248099999999994 70.382800000000003 50.624899999999997
70.382800000000003 90.234399999999994 106.94499999999999
57.2988 100.16 50.624899999999997
79.406300000000002 135.352 30.375
90.234399999999994 175.506 110.10899999999999
157.91 170.09200000000001 100.617
110.988 109.184 15.1875
83.015600000000006 130.38900000000001 30.375
83.466800000000006 130.38900000000001 6.3281200000000002
163.32400000000001 70.382800000000003 60.117100000000001
60.005899999999997 140.31399999999999 110.10899999999999
80.308599999999998 169.64099999999999 108.211
69.931700000000006 41.959000000000003 70.242099999999994
141.21700000000001 40.154299999999999 80.367099999999994
152.947 50.080100000000002 70.242099999999994
150.24000000000001 81.210999999999999 20.25
130.38900000000001 130.38900000000001 10.125
114.14700000000001 170.09200000000001 27.843699999999998
96.099599999999995 73.540999999999997 20.25
86.173900000000003 180.018 110.10899999999999
76.699200000000005 80.308599999999998 22.781199999999998
156.55699999999999 90.234399999999994 20.25
99.709000000000003 34.740200000000002 30.375
120.914 150.24000000000001 9.4921799999999994
55.042999999999999 130.38900000000001 50.624899999999997
140.31399999999999 49.628900000000002 100.617
175.95699999999999 120.012 100.617
146.631 160.166 120.23399999999999
78.503900000000002 90.234399999999994 120.23399999999999
111.43899999999999 33.837899999999998 10.125
157.91 60.005899999999997 20.25
80.308599999999998 171.44499999999999 60.117100000000001
66.773499999999999 76.248099999999994 50.624899999999997
154.30099999999999 100.16 10.125
122.71899999999999 115.95099999999999 10.7578
110.086 109.63500000000001 22.781199999999998
120.46299999999999 60.005899999999997 20.8828
116.402 180.018 38.601500000000001
180.018 120.012 70.242099999999994
170.09200000000001 111.43899999999999 30.375
107.83 50.531300000000002 110.10899999999999
108.732 50.982399999999998 35.4375
99.257800000000003 52.335999999999999 110.10899999999999
90.234399999999994 90.234399999999994 122.133
127.682 150.24000000000001 130.35900000000001
160.166 160.166 110.10899999999999
147.98400000000001 113.244 8.2265499999999996
110.086 150.24000000000001 10.125
169.64099999999999 100.16 40.499899999999997
169.64099999999999 110.086 104.414
74.443399999999997 60.005899999999997 100.617
165.12899999999999 80.308599999999998 90.492099999999994
161.52000000000001 160.166 40.499899999999997
70.382800000000003 163.32400000000001 80.367099999999994
151.59399999999999 160.166 30.375
57.75 90.234399999999994 80.367099999999994
55.042999999999999 120.012 90.492099999999994
53.238300000000002 80.308599999999998 20.25
206.637 171.89699999999999 80.367099999999994
108.28100000000001 115.04900000000001 0
84.369200000000006 160.166 130.35900000000001
73.992199999999997 120.012 17.718699999999998
67.224599999999995 124.072 20.25
149.33799999999999 181.37100000000001 80.367099999999994
120.012 41.507800000000003 10.125
65.419899999999998 48.726599999999998 43.031199999999998
97.001999999999995 120.012 30.375
101.965 30.2285 80.367099999999994
97.453199999999995 121.36499999999999 20.25
141.21700000000001 90.234399999999994 20.25
166.03100000000001 150.24000000000001 110.10899999999999
130.38900000000001 100.16 20.25
110.086 120.012 140.48400000000001
147.53299999999999 170.09200000000001 40.499899999999997
116.402 150.24000000000001 140.48400000000001
79.857399999999998 111.89100000000001 0
142.119 160.166 24.046800000000001
144.82599999999999 60.005899999999997 30.375
133.547 160.166 130.35900000000001
81.210999999999999 107.83 19.6172
169.64099999999999 149.78899999999999 104.414
149.78899999999999 50.080100000000002 80.367099999999994
110.086 190.39500000000001 60.117100000000001
150.24000000000001 120.012 130.35900000000001
79.857399999999998 124.523 130.35900000000001
64.517600000000002 140.31399999999999 120.23399999999999
156.55699999999999 119.56100000000001 8.8593600000000006
120.012 110.086 131.625
130.84 25.265599999999999 60.117100000000001
142.119 60.005899999999997 19.6172
80.308599999999998 60.005899999999997 98.718599999999995
99.709000000000003 132.64500000000001 140.48400000000001
135.352 130.38900000000001 2.53125
79.857399999999998 180.018 72.773300000000006
107.83 66.322299999999998 20.8828
103.77 190.39500000000001 50.624899999999997
61.359400000000001 100.16 40.499899999999997
180.46899999999999 120.012 90.492099999999994
70.382800000000003 90.234399999999994 30.375
120.46299999999999 50.080100000000002 0
70.382800000000003 120.012 117.06999999999999
110.988 160.166 130.35900000000001
119.56100000000001 159.715 127.19499999999999
61.810600000000001 57.75 30.375
119.10899999999999 60.005899999999997 110.10899999999999
98.806700000000006 27.5215 50.624899999999997
70.382800000000003 140.31399999999999 120.23399999999999
57.75 110.086 100.617
132.19300000000001 90.234399999999994 130.35900000000001
63.164099999999998 60.005899999999997 10.125
130.38900000000001 140.31399999999999 5.0624900000000004
100.16 110.086 130.35900000000001
126.328 130.38900000000001 0
120.012 50.982399999999998 40.499899999999997
59.554699999999997 60.908200000000001 30.375
149.33799999999999 90.234399999999994 117.06999999999999
151.59399999999999 80.308599999999998 10.125
159.715 100.16 110.10899999999999
91.136700000000005 60.005899999999997 105.047
98.355500000000006 80.308599999999998 20.25
80.308599999999998 149.78899999999999 124.664
55.042999999999999 110.086 60.117100000000001
90.685599999999994 120.012 129.726
59.103499999999997 120.012 110.10899999999999
64.968800000000002 130.38900000000001 120.23399999999999
149.78899999999999 49.628900000000002 30.375
83.015600000000006 113.244 30.375
69.931700000000006 122.71899999999999 30.375
60.005899999999997 110.086 100.617
110.086 140.31399999999999 140.48400000000001
141.66800000000001 150.24000000000001 18.984400000000001
107.83 64.066400000000002 120.23399999999999
121.36499999999999 180.018 110.10899999999999
59.554699999999997 60.908200000000001 20.25
43.7637 90.685599999999994 64.546800000000005
109.184 120.46299999999999 140.48400000000001
67.224599999999995 160.166 50.624899999999997
169.64099999999999 139.863 109.476
71.7363 170.09200000000001 100.617
171.44499999999999 80.308599999999998 80.367099999999994
160.61699999999999 80.308599999999998 100.617
112.342 120.012 0
69.931700000000006 113.69499999999999 120.23399999999999
161.06800000000001 90.234399999999994 30.375
93.392600000000002 190.39500000000001 70.242099999999994
211.59999999999999 130.38900000000001 53.789000000000001
118.20699999999999 120.012 133.523
145.27699999999999 170.09200000000001 120.23399999999999
72.6387 160.166 120.23399999999999
100.16 189.49199999999999 80.367099999999994
130.38900000000001 78.955100000000002 13.921900000000001
59.554699999999997 104.221 20.25
99.709000000000003 92.039100000000005 20.25
81.210999999999999 106.928 20.25
58.6524 97.904300000000006 22.781199999999998
139.41200000000001 149.78899999999999 127.828
158.81299999999999 60.005899999999997 60.117100000000001
180.018 140.31399999999999 74.671800000000005
153.84999999999999 70.382800000000003 40.499899999999997
80.759799999999998 110.086 121.5
154.30099999999999 120.012 10.125
110.086 192.19900000000001 50.624899999999997
128.584 50.080100000000002 10.125
167.83600000000001 140.31399999999999 40.499899999999997
100.16 172.34800000000001 120.23399999999999
101.063 40.154299999999999 30.375
96.550799999999995 80.308599999999998 30.375
78.503900000000002 59.103499999999997 0
86.625 50.080100000000002 0
75.796899999999994 130.38900000000001 40.499899999999997
113.69499999999999 112.342 20.25
150.24000000000001 60.005899999999997 0
55.042999999999999 130.38900000000001 90.492099999999994
160.166 90.234399999999994 110.10899999999999
63.615299999999998 56.847700000000003 20.25
67.224599999999995 95.648499999999999 22.148399999999999
159.26400000000001 70.382800000000003 50.624899999999997
90.234399999999994 80.308599999999998 0
207.53899999999999 167.83600000000001 100.617
120.012 115.04900000000001 20.25
70.382800000000003 159.715 106.312
59.554699999999997 110.086 9.4921799999999994
159.715 169.64099999999999 98.085800000000006
90.234399999999994 172.34800000000001 40.499899999999997
160.166 119.56100000000001 9.4921799999999994
111.89100000000001 114.14700000000001 0
212.953 89.783199999999994 32.273400000000002
108.732 83.918000000000006 130.35900000000001
150.24000000000001 39.703099999999999 34.171799999999998
91.587900000000005 100.16 130.35900000000001
130.38900000000001 82.564499999999995 10.125
180.91999999999999 120.012 100.617
125.877 110.086 30.375
160.166 104.221 20.25
180.91999999999999 140.31399999999999 100.617
135.352 60.005899999999997 110.10899999999999
90.234399999999994 169.64099999999999 118.336
127.23099999999999 190.39500000000001 90.492099999999994
74.894599999999997 170.09200000000001 110.10899999999999
101.514 30.2285 20.25
148.43600000000001 60.005899999999997 0
99.709000000000003 29.7774 41.765599999999999
60.457000000000001 140.31399999999999 40.499899999999997
100.16 182.72499999999999 100.617
108.732 26.167999999999999 50.624899999999997
80.308599999999998 90.234399999999994 116.437
149.33799999999999 184.078 70.242099999999994
86.173900000000003 124.072 3.1640600000000001
122.71899999999999 90.234399999999994 20.25
100.16 144.82599999999999 20.25
100.16 130.38900000000001 12.6562
107.379 80.308599999999998 15.1875
107.379 40.154299999999999 40.499899999999997
130.38900000000001 83.015600000000006 6.3281200000000002
160.166 130.38900000000001 8.2265499999999996
149.78899999999999 60.005899999999997 91.7577
158.36099999999999 94.294899999999998 10.125
79.857399999999998 35.191400000000002 50.624899999999997
61.810600000000001 80.308599999999998 60.117100000000001
92.941400000000002 39.252000000000002 5.6953100000000001
108.28100000000001 180.018 41.132800000000003
100.16 120.012 0
150.24000000000001 110.53700000000001 30.375
159.715 70.382800000000003 86.062399999999997
170.09200000000001 100.16 50.624899999999997
89.783199999999994 170.09200000000001 34.804600000000001
106.02500000000001 30.2285 50.624899999999997
173.25 90.234399999999994 90.492099999999994
170.54300000000001 120.012 110.10899999999999
115.5 25.265599999999999 50.624899999999997
70.382800000000003 87.978499999999997 0
69.931700000000006 43.3125 60.117100000000001
97.904300000000006 107.83 20.8828
170.09200000000001 79.406300000000002 60.117100000000001
108.732 190.39500000000001 48.726500000000001
138.96100000000001 70.382800000000003 109.476
89.332099999999997 28.875 60.117100000000001
130.38900000000001 29.7774 41.765599999999999
143.02199999999999 180.018 50.624899999999997
119.56100000000001 149.33799999999999 131.625
90.234399999999994 71.7363 0
130.38900000000001 50.982399999999998 10.125
89.332099999999997 180.018 46.828099999999999
58.2012 60.457000000000001 40.499899999999997
139.41200000000001 50.080100000000002 93.656099999999995
110.086 184.98099999999999 50.624899999999997
152.49600000000001 140.31399999999999 20.25
178.21299999999999 140.31399999999999 90.492099999999994
60.457000000000001 140.31399999999999 30.375
53.689500000000002 100.16 30.375
159.715 130.38900000000001 9.4921799999999994
146.18000000000001 40.154299999999999 50.624899999999997
89.783199999999994 29.7774 49.992100000000001
79.857399999999998 129.48599999999999 7.5937400000000004
170.54300000000001 130.84 30.375
80.308599999999998 60.005899999999997 50.624899999999997
138.059 70.382800000000003 110.10899999999999
169.64099999999999 130.84 30.375
169.64099999999999 123.621 30.375
150.24000000000001 40.154299999999999 70.242099999999994
130.38900000000001 30.2285 70.242099999999994
72.6387 60.005899999999997 10.125
60.005899999999997 130.38900000000001 50.624899999999997
153.398 120.012 30.375
60.005899999999997 138.96100000000001 60.117100000000001
77.601600000000005 52.335999999999999 10.125
121.36499999999999 70.834000000000003 0
80.308599999999998 172.34800000000001 70.242099999999994
103.318 71.285200000000003 40.499899999999997
100.16 60.005899999999997 107.578
57.75 140.31399999999999 110.10899999999999
98.806700000000006 28.875 80.367099999999994
152.947 50.080100000000002 50.624899999999997
131.74199999999999 150.24000000000001 17.085899999999999
119.56100000000001 77.150400000000005 16.453099999999999
80.308599999999998 71.285200000000003 0
159.26400000000001 150.24000000000001 30.375
150.24000000000001 54.140599999999999 0
53.689500000000002 97.904300000000006 30.375
84.369200000000006 50.080100000000002 50.624899999999997
150.24000000000001 41.959000000000003 80.367099999999994
60.005899999999997 70.382800000000003 5.6953100000000001
160.166 89.783199999999994 26.578099999999999
101.063 50.080100000000002 40.499899999999997
174.15199999999999 110.086 50.624899999999997
207.53899999999999 169.19 46.828099999999999
173.70099999999999 130.38900000000001 50.624899999999997
84.820300000000003 90.234399999999994 20.25
141.21700000000001 72.1875 20.25
138.50999999999999 103.318 15.1875
123.17 50.080100000000002 100.617
70.834000000000003 70.382800000000003 100.617
161.971 70.382800000000003 80.367099999999994
170.09200000000001 77.150400000000005 80.367099999999994
180.018 106.928 80.367099999999994
140.76599999999999 109.63500000000001 13.921900000000001
69.931700000000006 170.09200000000001 74.671800000000005
105.574 67.675799999999995 0
90.234399999999994 176.85900000000001 50.624899999999997
170.09200000000001 102.416 40.499899999999997
64.066400000000002 79.406300000000002 20.25
59.103499999999997 110.086 32.273400000000002
170.09200000000001 89.332099999999997 48.093699999999998
164.678 83.918000000000006 12.023400000000001
161.971 170.09200000000001 90.492099999999994
138.50999999999999 165.58000000000001 30.375
170.09200000000001 130.38900000000001 27.843699999999998
206.637 170.09200000000001 97.453000000000003
91.136700000000005 70.382800000000003 111.375
69.480500000000006 63.164099999999998 3.1640600000000001
159.715 168.28700000000001 100.617
136.70500000000001 60.005899999999997 0
160.166 115.95099999999999 20.25
159.715 90.234399999999994 107.578
79.857399999999998 49.177700000000002 11.390599999999999
59.554699999999997 140.31399999999999 32.906199999999998
159.715 172.34800000000001 80.367099999999994
169.64099999999999 120.012 40.499899999999997
119.56100000000001 51.433599999999998 11.390599999999999
100.16 181.37100000000001 50.624899999999997
139.41200000000001 184.529 90.492099999999994
110.086 170.09200000000001 30.375
89.783199999999994 45.568399999999997 100.617
140.31399999999999 190.39500000000001 70.242099999999994
160.61699999999999 60.005899999999997 60.117100000000001
156.10599999999999 134.90000000000001 20.25
120.012 180.018 40.499899999999997
61.810600000000001 110.086 110.10899999999999
170.09200000000001 77.150400000000005 70.242099999999994
161.971 70.382800000000003 50.624899999999997
155.203 123.17 2.53125
120.012 29.7774 40.499899999999997
109.184 90.685599999999994 130.35900000000001
144.82599999999999 80.308599999999998 20.25
79.857399999999998 52.787100000000002 100.617
111.89100000000001 32.935600000000001 90.492099999999994
100.16 80.308599999999998 20.25
120.914 124.97499999999999 10.125
161.52000000000001 120.012 10.125
128.584 175.95699999999999 110.10899999999999
71.285200000000003 110.086 120.23399999999999
89.783199999999994 46.470700000000001 0
88.880899999999997 37.447299999999998 90.492099999999994
75.345699999999994 70.382800000000003 0
73.540999999999997 118.658 20.25
75.345699999999994 170.09200000000001 50.624899999999997
154.75200000000001 170.09200000000001 50.624899999999997
110.086 32.935600000000001 30.375
120.012 30.2285 50.624899999999997
70.382800000000003 153.398 40.499899999999997
96.099599999999995 118.658 10.7578
59.554699999999997 108.28100000000001 10.125
63.615299999999998 60.005899999999997 20.25
26.6191 173.70099999999999 136.05500000000001
131.291 90.234399999999994 15.8203
90.234399999999994 80.308599999999998 10.125
120.46299999999999 160.166 22.148399999999999
121.36499999999999 106.02500000000001 15.1875
54.591799999999999 80.308599999999998 18.351500000000001
82.113299999999995 90.234399999999994 120.23399999999999
177.762 140.31399999999999 80.367099999999994
73.992199999999997 119.56100000000001 17.718699999999998
69.931700000000006 83.918000000000006 30.375
64.066400000000002 50.080100000000002 50.624899999999997
120.914 150.24000000000001 10.125
176.85900000000001 130.38900000000001 70.242099999999994
79.857399999999998 33.837899999999998 60.117100000000001
97.904300000000006 170.09200000000001 32.273400000000002
168.738 110.086 30.375
101.063 118.658 12.6562
159.26400000000001 70.382800000000003 10.125
70.382800000000003 140.31399999999999 22.148399999999999
60.005899999999997 145.27699999999999 70.242099999999994
79.857399999999998 131.291 10.125
94.294899999999998 40.154299999999999 90.492099999999994
170.09200000000001 160.166 70.242099999999994
61.359400000000001 150.24000000000001 100.617
59.103499999999997 70.382800000000003 5.6953100000000001
80.308599999999998 73.540999999999997 30.375
139.863 58.2012 42.398400000000002
65.419899999999998 80.308599999999998 100.617
55.042999999999999 130.38900000000001 100.617
160.166 60.457000000000001 80.367099999999994
166.03100000000001 160.166 100.617
60.457000000000001 130.38900000000001 30.375
129.035 80.308599999999998 120.23399999999999
64.066400000000002 160.166 70.242099999999994
152.49600000000001 40.154299999999999 60.117100000000001
95.648499999999999 120.012 10.125
102.867 106.928 30.375
130.38900000000001 29.7774 80.367099999999994
108.28100000000001 27.5215 80.367099999999994
160.166 124.072 3.7968700000000002
63.164099999999998 110.086 0
64.517600000000002 70.382800000000003 90.492099999999994
96.550799999999995 113.69499999999999 20.25
54.140599999999999 120.012 80.367099999999994
109.63500000000001 40.154299999999999 86.062399999999997
81.210999999999999 40.154299999999999 80.367099999999994
99.257800000000003 42.410200000000003 100.617
137.607 120.012 30.375
65.419899999999998 160.166 60.117100000000001
143.47300000000001 150.24000000000001 20.25
150.24000000000001 50.080100000000002 10.125
171.44499999999999 90.234399999999994 80.367099999999994
161.06800000000001 140.31399999999999 20.25
120.012 83.466800000000006 130.35900000000001
109.184 105.574 15.8203
73.0899 170.09200000000001 80.367099999999994
168.738 110.086 40.499899999999997
63.164099999999998 160.166 90.492099999999994
89.332099999999997 160.166 27.843699999999998
85.271500000000003 80.308599999999998 0
89.783199999999994 126.779 16.453099999999999
138.059 90.234399999999994 121.5
40.154299999999999 100.16 65.179599999999994
69.931700000000006 170.09200000000001 90.492099999999994
55.945300000000003 110.086 90.492099999999994
59.554699999999997 97.001999999999995 100.617
70.382800000000003 50.080100000000002 80.367099999999994
123.621 80.308599999999998 30.375
160.166 150.24000000000001 27.843699999999998
108.732 24.363299999999999 60.117100000000001
109.184 120.012 10.125
149.78899999999999 88.429699999999997 14.5547
159.26400000000001 80.308599999999998 99.351399999999998
110.086 61.359400000000001 36.703099999999999
154.75200000000001 100.16 0
90.234399999999994 183.17599999999999 80.367099999999994
106.928 140.31399999999999 140.48400000000001
150.24000000000001 48.726599999999998 20.25
137.15600000000001 190.39500000000001 60.117100000000001
72.1875 50.080100000000002 50.624899999999997
61.359400000000001 90.234399999999994 90.492099999999994
120.012 197.16200000000001 70.242099999999994
166.03100000000001 120.012 20.25
95.648499999999999 50.080100000000002 36.703099999999999
70.382800000000003 70.382800000000003 90.492099999999994
151.59399999999999 150.24000000000001 20.25
126.328 40.154299999999999 90.492099999999994
117.30500000000001 150.24000000000001 8.8593600000000006
91.136700000000005 54.140599999999999 14.5547
100.16 159.715 129.726
58.6524 90.234399999999994 90.492099999999994
180.018 109.63500000000001 75.937399999999997
83.918000000000006 60.005899999999997 19.6172
157.00800000000001 100.16 20.25
129.93799999999999 147.08199999999999 130.35900000000001
81.210999999999999 170.09200000000001 120.23399999999999
150.24000000000001 59.554699999999997 100.617
89.332099999999997 31.1309 80.367099999999994
92.039100000000005 190.39500000000001 80.367099999999994
101.965 130.38900000000001 0
136.70500000000001 190.39500000000001 70.242099999999994
71.285200000000003 60.005899999999997 90.492099999999994
169.64099999999999 90.234399999999994 90.492099999999994
103.318 28.875 20.25
128.584 120.012 0
181.37100000000001 140.31399999999999 80.367099999999994
124.072 130.38900000000001 10.125
92.490300000000005 75.345699999999994 10.125
70.382800000000003 59.554699999999997 48.726500000000001
76.248099999999994 115.5 40.499899999999997
149.78899999999999 110.086 122.133
114.598 40.154299999999999 0
105.574 31.1309 30.375
159.715 173.25 70.242099999999994
110.086 27.5215 80.367099999999994
99.709000000000003 109.63500000000001 32.273400000000002
162.422 70.382800000000003 90.492099999999994
63.615299999999998 113.69499999999999 30.375
60.457000000000001 103.318 20.25
91.136700000000005 130.38900000000001 10.125
150.691 60.005899999999997 90.492099999999994
77.150400000000005 70.382800000000003 110.10899999999999
159.715 110.086 114.539
143.02199999999999 120.012 130.35900000000001
150.691 140.31399999999999 15.8203
159.715 172.79900000000001 90.492099999999994
153.84999999999999 130.38900000000001 130.35900000000001
165.12899999999999 91.136700000000005 20.25
143.02199999999999 130.38900000000001 20.8828
140.31399999999999 29.7774 53.789000000000001
174.60400000000001 150.24000000000001 80.367099999999994
159.715 160.61699999999999 110.10899999999999
69.931700000000006 68.126999999999995 100.617
207.99000000000001 167.83600000000001 97.453000000000003
20.753900000000002 172.34800000000001 75.304599999999994
108.28100000000001 148.43600000000001 10.125
100.16 30.2285 70.242099999999994
120.012 190.39500000000001 80.367099999999994
203.02699999999999 180.018 90.492099999999994
90.234399999999994 167.38499999999999 120.23399999999999
62.261699999999998 100.16 10.125
114.14700000000001 39.252000000000002 0
150.24000000000001 38.800800000000002 50.624899999999997
67.675799999999995 60.005899999999997 90.492099999999994
70.382800000000003 150.24000000000001 30.375
102.416 60.005899999999997 110.10899999999999
93.843800000000002 140.31399999999999 10.7578
129.48599999999999 80.308599999999998 10.125
140.31399999999999 99.257800000000003 130.35900000000001
65.871099999999998 110.086 20.25
71.7363 80.308599999999998 100.617
107.379 78.503900000000002 10.7578
80.308599999999998 170.09200000000001 110.10899999999999
109.63500000000001 32.033200000000001 11.390599999999999
153.398 50.080100000000002 20.25
129.035 50.080100000000002 97.453000000000003
160.166 59.103499999999997 53.789000000000001
150.24000000000001 79.857399999999998 21.515599999999999
199.41800000000001 185.88300000000001 90.492099999999994
133.99799999999999 70.382800000000003 120.23399999999999
79.406300000000002 42.410200000000003 90.492099999999994
80.308599999999998 131.291 10.125
152.947 50.080100000000002 30.375
115.04900000000001 98.806700000000006 17.085899999999999
97.904300000000006 50.080100000000002 100.617
138.059 120.012 130.35900000000001
140.76599999999999 50.080100000000002 100.617
142.56999999999999 49.628900000000002 3.1640600000000001
176.40799999999999 110.086 90.492099999999994
150.691 80.308599999999998 0
151.59399999999999 40.154299999999999 50.624899999999997
179.566 120.012 90.492099999999994
102.867 27.0703 17.085899999999999
59.554699999999997 109.63500000000001 8.8593600000000006
170.09200000000001 116.402 27.843699999999998
56.396500000000003 130.38900000000001 40.499899999999997
64.066400000000002 140.31399999999999 18.984400000000001
150.24000000000001 50.080100000000002 90.492099999999994
151.59399999999999 63.615299999999998 40.499899999999997
90.234399999999994 148.43600000000001 130.35900000000001
166.934 160.166 70.242099999999994
54.140599999999999 120.012 70.242099999999994
80.308599999999998 174.60400000000001 90.492099999999994
60.005899999999997 142.56999999999999 80.367099999999994
110.086 40.154299999999999 90.492099999999994
150.24000000000001 69.931700000000006 31.640599999999999
170.09200000000001 160.166 80.367099999999994
69.029300000000006 70.382800000000003 100.617
37.898400000000002 105.574 70.242099999999994
130.38900000000001 119.56100000000001 12.023400000000001
78.503900000000002 73.540999999999997 30.375
80.308599999999998 50.080100000000002 91.124899999999997
148.43600000000001 110.086 30.375
160.166 100.16 3.7968700000000002
80.308599999999998 156.55699999999999 30.375
123.17 143.47300000000001 10.125
101.063 40.154299999999999 26.578099999999999
120.012 46.470700000000001 0
63.615299999999998 80.308599999999998 20.25
157.459 90.234399999999994 110.10899999999999
101.063 50.080100000000002 99.351399999999998
108.28100000000001 96.550799999999995 41.765599999999999
120.012 115.95099999999999 0
165.58000000000001 100.16 30.375
154.75200000000001 90.234399999999994 0
71.285200000000003 90.234399999999994 0
180.018 127.23099999999999 69.609300000000005
130.38900000000001 124.97499999999999 140.48400000000001
140.31399999999999 100.16 20.25
149.33799999999999 149.33799999999999 20.25
168.28700000000001 160.166 80.367099999999994
126.328 70.382800000000003 120.23399999999999
169.64099999999999 154.30099999999999 100.617
147.53299999999999 76.699200000000005 0
90.234399999999994 50.080100000000002 0
66.322299999999998 90.234399999999994 0
82.113299999999995 140.31399999999999 130.35900000000001
139.41200000000001 158.81299999999999 124.03100000000001
60.005899999999997 138.96100000000001 90.492099999999994
62.261699999999998 54.140599999999999 40.499899999999997
111.89100000000001 30.2285 50.624899999999997
60.908200000000001 110.086 40.499899999999997
106.477 150.24000000000001 10.7578
80.308599999999998 169.64099999999999 50.624899999999997
170.09200000000001 98.806700000000006 42.398400000000002
148.887 80.308599999999998 110.10899999999999
113.69499999999999 73.992199999999997 30.375
140.31399999999999 51.884799999999998 0
134.44900000000001 87.5274 20.25
21.205100000000002 170.09200000000001 43.664000000000001
130.38900000000001 170.994 120.23399999999999
78.503900000000002 180.018 80.367099999999994
60.005899999999997 60.005899999999997 30.375
74.443399999999997 120.012 40.499899999999997
138.96100000000001 52.335999999999999 0
70.382800000000003 170.09200000000001 70.242099999999994
159.715 147.08199999999999 30.375
95.197299999999998 80.308599999999998 120.23399999999999
170.09200000000001 79.857399999999998 58.851500000000001
141.21700000000001 60.005899999999997 100.617
151.143 180.018 80.367099999999994
59.554699999999997 84.369200000000006 70.242099999999994
97.904300000000006 67.675799999999995 39.867100000000001
130.38900000000001 170.09200000000001 29.109300000000001
59.554699999999997 59.554699999999997 35.4375
123.17 30.2285 80.367099999999994
129.93799999999999 180.91999999999999 100.617
139.863 185.43199999999999 60.117100000000001
21.205100000000002 168.738 41.132800000000003
120.012 51.884799999999998 37.968699999999998
130.38900000000001 118.658 0
149.78899999999999 90.685599999999994 0
169.19 160.166 90.492099999999994
207.53899999999999 170.09200000000001 46.828099999999999
180.018 106.928 90.492099999999994
148.887 176.40799999999999 100.617
151.59399999999999 44.2149 30.375
140.31399999999999 30.6797 50.624899999999997
113.69499999999999 40.154299999999999 10.125
160.166 98.806700000000006 3.7968700000000002
121.816 73.540999999999997 10.125
70.382800000000003 143.92400000000001 30.375
62.261699999999998 150.24000000000001 80.367099999999994
131.74199999999999 49.177700000000002 3.1640600000000001
171.89699999999999 100.16 90.492099999999994
133.096 63.164099999999998 20.25
129.035 80.308599999999998 0
80.308599999999998 158.81299999999999 120.23399999999999
171.44499999999999 100.16 100.617
180.018 130.38900000000001 70.242099999999994
61.359400000000001 120.012 110.10899999999999
155.203 60.005899999999997 10.125
118.658 182.273 100.617
148.43600000000001 125.877 10.125
179.566 131.74199999999999 90.492099999999994
206.637 169.64099999999999 50.624899999999997
177.762 110.086 80.367099999999994
81.210999999999999 180.018 80.367099999999994
79.406300000000002 130.38900000000001 8.2265499999999996
157.459 80.308599999999998 30.375
149.33799999999999 179.566 90.492099999999994
130.84 26.6191 50.624899999999997
99.709000000000003 160.166 25.3125
139.863 120.012 129.726
80.308599999999998 50.080100000000002 10.7578
174.60400000000001 100.16 80.367099999999994
140.31399999999999 110.086 20.25
101.514 120.012 132.88999999999999
89.783199999999994 43.3125 10.125
97.453199999999995 120.012 0
145.27699999999999 48.275399999999998 10.125
106.02500000000001 70.382800000000003 0
80.308599999999998 173.25 100.617
72.1875 80.308599999999998 30.375
130.38900000000001 120.012 0
80.308599999999998 40.154299999999999 46.195300000000003
72.1875 150.24000000000001 120.23399999999999
133.547 187.23599999999999 80.367099999999994
143.92400000000001 50.080100000000002 10.125
166.934 100.16 100.617
110.086 50.531300000000002 110.10899999999999
140.76599999999999 33.837899999999998 80.367099999999994
181.37100000000001 110.53700000000001 90.492099999999994
144.82599999999999 180.018 100.617
129.93799999999999 90.234399999999994 16.453099999999999
70.382800000000003 149.78899999999999 116.437
84.369200000000006 90.234399999999994 11.390599999999999
70.834000000000003 120.012 120.23399999999999
70.382800000000003 63.164099999999998 20.25
59.554699999999997 85.722700000000003 60.117100000000001
149.33799999999999 50.080100000000002 20.25
111.43899999999999 180.018 120.23399999999999
98.355500000000006 34.740200000000002 90.492099999999994
79.406300000000002 180.018 90.492099999999994
108.732 40.154299999999999 90.492099999999994
80.308599999999998 175.05500000000001 80.367099999999994
